ncols        219
nrows        103
xllcorner    -70.4291666667
yllcorner    43.3
cellsize     0.004166666667
NODATA_value -32767
45 40 31 45 32 26 31 49 66 55 41 39 35 58 82 84 65 53 44 56 71 78 73 71 77 74 62 50 46 26 12 14 24 29 19 37 37 43 49 58 57 46 48 44 32 16 15 16 17 18 29 26 15 3 -3 -9 -11 -12 -14 -16 -13 -13 -12 -12 -12 -13 -12 -11 -8 4 16 34 44 39 32 18 14 -12 -21 -22 4 -21 -22 -18 -17 -21 -29 -35 -39 -33 -26 -15 4 -1 0 4 -3 -8 -24 -23 -22 -23 -18 13 12 -9 -18 -26 -14 -18 -24 -25 -27 -27 -29 -31 -27 8 11 -21 -22 -21 -23 -26 -25 -24 -20 -15 -14 -16 -18 -18 -17 -15 -13 -10 -8 14 19 18 20 16 11 5 3 3 -3 -4 -5 -6 -7 -8 -8 -10 -11 -11 -13 -12 -11 -10 -10 -10 -14 -16 -18 -21 -24 -28 -31 -33 -34 -28 -31 -38 -49 -60 -61 -51 -48 -50 -61 -65 -62 -64 -65 -66 -67 -69 -69 -69 -66 -55 -32 -41 -32 -47 -43 -43 -59 -42 -45 -45 -49 -50 -59 -60 -58 -65 -63 -67 -88 -84 -80 -70 -71 -68 -84 -78 -91
46 42 40 30 34 37 36 49 54 53 42 31 39 71 83 90 70 54 37 60 75 69 65 60 65 65 47 33 21 13 19 27 37 37 31 23 21 35 44 50 44 33 37 32 13 15 15 12 16 14 20 3 -2 -4 -6 -9 -11 6 -15 -15 -14 -13 -13 -13 -13 -14 -13 -11 -8 1 13 35 30 22 14 2 -7 -17 -20 -22 -22 -20 -17 -13 -12 -15 -25 -34 -40 -35 -26 -15 -5 3 3 5 11 -7 -21 -25 -25 -22 7 10 8 -13 -18 -22 -22 -24 -25 -23 -21 -24 -27 -29 -27 -24 -22 -21 -21 -22 -23 -24 -23 -22 -19 -16 -15 -15 -16 -16 -16 -14 -14 -12 -10 5 7 11 20 28 15 2 1 -4 -7 -8 -9 -11 -13 -12 -14 -17 -17 -14 -13 -12 -10 -9 -10 -10 -10 -13 -19 -25 -28 -31 -33 -35 -37 -39 -41 -43 -51 -58 -63 -60 -47 -38 -55 -66 -57 -67 -67 -69 -70 -70 -70 -69 -64 -57 -28 -47 -55 -59 -49 -70 -66 -55 -52 -47 -46 -44 -44 -59 -72 -59 -65 -78 -88 -87 -74 -62 -68 -72 -82 -85 -100
47 41 37 42 35 39 44 46 57 56 42 29 38 63 78 81 78 52 32 60 67 71 60 51 46 39 21 13 12 17 24 34 43 54 45 39 40 36 18 27 34 26 18 11 4 11 14 12 21 13 5 0 -5 -7 -8 -9 6 -13 -14 -15 -13 -13 -14 -14 -14 -14 -12 -9 -1 -3 -5 -1 7 15 11 -2 -8 -13 -17 -19 -18 -14 4 -3 -4 -7 -20 -32 -39 -34 -25 -14 -3 2 7 16 0 -3 -25 -28 -26 15 14 -1 -8 -18 -20 -22 -25 -27 -26 -21 -15 -20 -26 -29 -25 -20 -20 -20 2 -21 -22 -22 -21 -20 -18 -16 -16 -15 -15 -15 -15 -15 -14 -14 -11 -6 5 13 32 33 15 4 -2 -6 -11 -13 -12 -14 -18 -15 -15 -18 -17 -13 -12 -13 -13 -12 -13 -13 -12 -18 -23 -27 -31 -33 -35 -37 -39 -40 -45 -46 -51 -52 -62 -64 -56 -40 -43 -65 -68 -69 -70 -71 -72 -72 -73 -66 -64 -48 -39 -59 -66 -44 -65 -69 -66 -64 -56 -44 -45 -42 -45 -68 -74 -50 -64 -83 -89 -91 -79 -65 -79 -78 -77 -89 -105
54 47 45 30 28 30 41 55 59 55 38 28 33 55 63 62 63 46 27 52 65 64 52 38 27 18 14 17 13 21 30 40 44 50 55 49 47 47 44 38 23 13 17 13 7 6 11 36 28 13 13 -1 -6 -8 -9 1 -11 -13 -14 -14 -14 -15 -15 -16 -16 -15 5 14 4 -6 -6 -4 2 14 -3 -6 -10 -15 -18 -18 -16 -13 -9 2 -8 -12 -22 -30 -34 -29 -21 -12 -4 0 -1 -5 -10 -15 -22 -24 1 2 -11 -8 -10 -15 -19 -23 -27 -29 -29 -26 -23 -25 -27 -29 -28 -26 -25 -24 -23 -23 -23 -22 -21 -19 -18 -16 -15 -15 -15 -15 -15 -15 -14 -14 -12 -9 9 20 26 21 14 0 -6 -10 -13 -18 -18 -15 -18 -16 -16 -17 -17 -16 -16 -16 -15 -14 -13 -12 -12 -19 -26 -30 -32 -34 -37 -40 -42 -44 -49 -53 -52 -51 -60 -65 -63 -46 -40 -62 -70 -66 -64 -74 -74 -74 -75 -66 -65 -42 -41 -49 -58 -68 -72 -63 -67 -72 -59 -46 -50 -50 -58 -69 -75 -60 -66 -84 -88 -89 -88 -81 -81 -74 -75 -97 -109
53 51 52 52 36 34 31 53 55 47 37 28 31 60 66 70 60 50 28 39 51 51 47 25 21 10 20 21 21 23 32 46 42 42 46 47 38 46 52 40 27 21 8 8 2 5 13 22 32 22 17 -2 -7 -8 -9 -10 -12 -13 -13 -14 -15 -16 -17 -17 -17 3 4 8 -10 -8 -8 -8 18 -5 -7 13 -12 -16 -21 1 3 -11 -8 -8 4 -15 -25 -32 -33 3 -17 -11 -6 -2 -5 -10 -19 -24 -26 -23 -18 -15 -12 -11 -11 -15 -18 -23 -30 -34 -33 -31 -30 -30 -31 -32 -31 -30 -29 -28 -27 -26 -25 -23 -21 -20 -19 -17 -15 -15 -16 -16 -16 -15 -14 -14 -14 -14 12 19 19 17 10 -2 -13 -11 -13 -15 -16 -16 -16 -18 -18 -20 -19 -19 -20 -19 -18 -17 -16 2 -8 -15 -25 -31 -34 -36 -38 -42 -45 -47 -54 -58 -59 -51 -57 -66 -67 -48 -44 -64 -69 -58 -59 -76 -76 -76 -76 -70 -62 -49 -34 -35 -46 -70 -68 -63 -53 -74 -66 -47 -50 -49 -73 -71 -77 -72 -76 -86 -85 -81 -90 -90 -82 -75 -86 -104 -108
56 49 53 58 39 29 29 33 40 38 40 39 27 43 60 60 66 48 32 26 32 31 22 18 16 12 27 22 22 20 28 38 41 36 38 35 31 40 32 32 28 22 9 6 5 9 11 10 10 22 18 -2 -6 -8 -9 -10 -12 -13 -13 -13 -17 -18 -18 -18 -16 -13 -11 -8 6 7 -9 -12 -12 2 14 19 -11 -10 7 20 -9 -8 -6 -7 -8 -12 -30 -34 -34 -23 -10 -10 -11 -11 -9 -10 -22 -31 -33 -24 -14 -12 -13 -14 -14 -16 -18 -21 -35 -37 -36 -35 -35 -35 -35 -36 -34 -33 -33 -32 -30 -30 -28 -24 -24 -22 -21 -19 -15 -16 -17 -17 -17 -16 -14 -15 -15 -15 7 13 10 8 0 -4 -23 -13 -15 -16 -18 -19 -19 -20 -21 -21 -22 -22 -23 -24 -21 -20 -16 -8 -7 -18 -28 -33 -36 -39 -41 -46 -50 -52 -58 -60 -62 -59 -61 -66 -67 -62 -62 -68 -57 -67 -69 -75 -76 -76 -75 -61 -48 -55 -36 -36 -57 -72 -69 -54 -51 -54 -62 -60 -50 -45 -70 -84 -83 -81 -85 -85 -79 -80 -92 -79 -89 -87 -99 -104 -107
58 55 62 68 52 34 44 35 32 36 45 40 31 47 54 66 70 50 36 27 18 20 25 18 13 18 25 24 23 23 27 29 31 29 30 36 27 27 30 31 21 11 7 4 8 11 10 1 1 0 5 -4 -5 -7 -8 -10 -12 -15 -16 -18 -19 -19 -18 -18 -17 -16 -11 4 17 31 7 -11 -15 6 -17 -15 -11 13 17 -8 -9 -9 -10 -9 -9 -9 -15 -24 -29 -27 -22 -20 -18 -15 -13 -14 -23 -28 -25 -21 -16 -13 -13 -14 -15 -18 -23 -28 -35 -38 -38 -38 -38 -37 -37 -36 -37 -38 -38 -38 -38 -37 -34 -30 -29 -25 -22 -20 -18 -18 -18 -18 -18 -17 -16 -16 -16 -17 -14 -10 -4 4 1 -23 -23 -16 -18 -19 -20 -20 -21 -22 -23 -24 -24 -26 -27 -27 -24 -24 -23 -21 -16 -24 -33 -35 -40 -43 -47 -52 -56 -59 -61 -62 -64 -65 -64 -64 -68 -69 -69 -70 -71 -71 -72 -75 -77 -78 -73 -60 -50 -50 -39 -40 -66 -73 -72 -54 -58 -51 -59 -56 -49 -66 -83 -87 -80 -78 -87 -87 -87 -89 -95 -83 -93 -84 -104 -107 -108
66 64 62 53 38 33 29 28 36 35 29 24 26 32 54 74 72 54 26 27 25 24 23 18 14 22 21 26 33 34 33 37 34 29 25 27 32 27 31 40 29 10 5 2 9 10 0 -1 -2 -4 -4 -5 -5 -6 -7 -8 -12 -16 -18 -21 -21 -20 -18 -16 -16 -15 6 7 26 -4 -6 -12 -17 -20 -21 -20 2 12 -8 3 2 -10 -14 -12 -10 -7 -1 -16 -28 -32 -33 -30 -27 -24 -18 -11 -22 -31 -18 -17 -18 -15 -15 -15 -17 -21 -27 -34 -38 -40 -38 -39 -39 -37 -38 -37 -38 -38 -38 -38 -38 -37 -38 -35 -35 -26 -24 -23 -22 -21 -20 -19 -20 -19 -18 -18 -18 -19 -20 -20 -13 -13 1 -24 -18 -20 -16 -17 -22 -23 -23 -24 -25 -26 -27 -29 -29 -22 -28 -30 -33 -33 -32 -32 -34 -36 -41 -46 -49 -54 -52 -57 -62 -64 -66 -65 -65 -68 -69 -70 -70 -57 -55 -72 -72 -75 -78 -79 -74 -76 -63 -56 -49 -54 -60 -59 -74 -65 -66 -69 -63 -63 -60 -74 -75 -86 -79 -79 -84 -88 -90 -96 -96 -98 -103 -94 -107 -111 -114
62 64 55 51 37 37 38 36 35 34 34 32 29 33 41 64 48 41 28 24 23 23 21 16 16 26 24 23 25 30 33 33 36 30 26 26 21 30 46 42 20 9 3 -1 -2 -1 -1 -1 -2 -7 -5 -5 -6 -6 -7 -8 -9 -11 5 -15 -25 -23 -19 -15 6 10 16 13 -9 -11 -14 -18 -22 -25 -22 17 11 -7 -9 -5 -2 -4 -7 -11 -15 -17 -16 -26 -38 -40 -41 -38 -36 -34 -34 -37 -28 -23 -18 -16 -15 -15 -16 -18 -21 -28 -29 -42 -43 -45 -44 -43 -42 -36 -39 -39 -39 -39 -39 -38 -37 -37 -37 -38 -36 -31 -28 -23 -24 -24 -23 -22 -22 -22 -22 -21 -20 -19 -20 -20 -16 -19 -26 -26 -23 -23 -17 -18 -23 -25 -25 -26 -27 -27 -28 -30 -28 -24 -28 -31 -33 -30 -23 -31 -38 -38 -44 -49 -53 -58 -60 -62 -63 -67 -68 -67 -67 -70 -71 -72 -68 -55 -66 -69 -75 -78 -80 -79 -77 -68 -45 -44 -45 -55 -57 -59 -69 -41 -59 -74 -65 -57 -73 -79 -86 -88 -79 -71 -76 -96 -99 -103 -95 -105 -103 -95 -102 -112 -113
58 58 51 50 41 42 38 34 35 36 44 41 28 33 35 38 36 31 21 16 15 13 11 15 19 24 23 20 21 29 34 34 34 33 33 25 23 18 28 25 13 5 4 8 -2 -2 12 20 -4 -7 -6 -6 -6 -5 -5 4 7 -8 -12 -18 -23 6 10 14 17 16 11 -8 -11 -15 -18 -22 -25 -25 -21 12 -9 -3 -4 -2 -2 6 -9 -13 -18 -21 -23 -28 -33 -37 -40 -41 -40 -39 -37 -33 -27 -22 -19 -18 -18 -19 -19 -19 -19 -13 -13 -32 -41 -43 -42 -40 -36 -29 -39 -39 -41 -41 -39 -37 -38 -34 -33 -35 -37 -35 -31 -28 -26 -25 -26 -27 -25 -23 -23 -22 -22 -21 -21 -21 -18 -20 -22 -25 -27 -27 -25 -24 -25 -26 -28 -28 -28 -29 -30 -31 -28 -24 -28 -30 -32 -26 -21 -35 -40 -42 -49 -51 -56 -59 -60 -62 -66 -67 -68 -62 -61 -69 -72 -73 -70 -57 -60 -58 -76 -81 -81 -78 -70 -54 -57 -47 -52 -63 -65 -76 -68 -61 -75 -66 -57 -68 -70 -73 -88 -92 -84 -78 -89 -94 -98 -93 -85 -104 -96 -104 -101 -114 -112
53 51 53 48 48 37 35 39 39 40 32 31 26 25 35 32 31 22 21 19 19 22 21 21 20 21 23 25 29 25 29 35 40 35 31 26 23 16 18 13 9 7 7 -3 -2 -2 -2 -3 -4 -5 -6 -6 -5 -4 3 15 25 7 -12 -21 -24 7 22 26 26 17 -2 -8 -16 -20 -22 -25 -26 -26 1 -15 -11 -9 -7 -4 10 -6 -12 -17 -21 -24 -25 -26 -29 -35 -40 -43 -43 -42 -36 -29 -24 -21 -18 -20 -23 -24 -24 -20 -16 -11 -11 -34 -42 -42 -38 -35 -34 -32 -36 -40 -43 -44 -40 -41 -32 -20 -21 -29 -36 -37 -36 -33 -28 -27 -28 -25 -20 -20 -20 -23 -24 -24 -24 -25 -25 -26 -28 -29 -29 -27 -28 -28 -28 -28 -30 -30 -30 -31 -29 -29 -32 -32 -31 -32 -34 -32 -28 -37 -42 -45 -50 -51 -57 -61 -59 -63 -68 -69 -70 -67 -67 -71 -72 -73 -68 -49 -56 -65 -81 -83 -82 -79 -67 -68 -63 -48 -56 -72 -80 -78 -67 -77 -79 -55 -52 -66 -67 -78 -90 -88 -93 -88 -89 -97 -94 -77 -90 -98 -96 -102 -103 -116 -115
51 47 50 59 45 39 36 37 35 40 31 28 28 28 30 29 23 17 20 24 26 36 30 22 22 25 21 22 32 39 40 43 41 32 24 20 14 8 8 4 6 11 9 -5 -3 -1 -2 -4 -3 -3 -5 -5 -5 5 17 25 20 27 -11 -25 -26 -22 6 17 12 6 -1 -8 -23 -25 -26 -26 -27 -27 -20 -12 -14 -15 -15 19 25 -9 -17 -22 -26 -28 -27 -25 -24 -34 -44 -46 -46 -44 -36 -27 -24 -23 -14 -21 -29 -31 -31 -26 -18 -10 -10 -48 -48 -43 -32 -32 -30 -29 -29 -41 -43 -45 -34 -23 -27 -25 -30 -36 -38 -39 -38 -37 -29 -27 -23 -17 -16 -21 -15 -25 -25 -26 -26 -27 -28 -29 -29 -27 -30 -27 -27 -29 -29 -29 -30 -33 -33 -35 -30 -29 -34 -35 -35 -35 -36 -38 -37 -39 -44 -46 -48 -50 -53 -60 -64 -68 -70 -70 -72 -71 -68 -68 -72 -74 -69 -57 -66 -66 -83 -85 -81 -71 -64 -75 -48 -45 -59 -66 -78 -71 -66 -81 -84 -68 -71 -76 -76 -81 -78 -78 -89 -82 -87 -90 -84 -77 -88 -88 -103 -104 -102 -117 -118
55 47 50 44 35 33 36 34 37 40 34 29 29 24 21 19 21 24 22 28 27 22 24 25 28 30 22 22 20 25 28 37 43 40 23 16 11 -7 -7 -7 -8 -9 -9 -9 -5 -2 -2 -7 -3 -4 -5 -5 -5 7 19 28 37 2 -2 -10 -28 -24 2 -6 -4 4 -11 -20 -24 -26 -26 -26 -24 -21 -21 -22 -23 -24 5 23 -8 -14 -22 -26 -30 -33 -36 -32 -30 -37 -46 -46 -45 -43 -41 -40 -34 -31 -32 -33 -34 -34 -32 -31 -23 -10 -25 -50 -50 -43 -30 -29 -28 -28 -29 -43 -31 -23 -23 -28 -30 -34 -34 -31 -36 -41 -41 -36 -26 -26 -23 -19 -21 -25 -22 -26 -27 -27 -28 -29 -30 -29 -29 -26 -26 -29 -27 -28 -30 -30 -32 -35 -32 -34 -32 -32 -34 -35 -36 -37 -38 -37 -37 -39 -45 -46 -49 -50 -53 -57 -62 -71 -72 -72 -72 -69 -64 -66 -72 -74 -68 -67 -58 -62 -85 -88 -80 -68 -70 -60 -41 -45 -65 -69 -78 -77 -74 -86 -80 -77 -84 -75 -70 -74 -71 -74 -82 -81 -91 -80 -68 -74 -84 -75 -93 -106 -110 -119 -120
62 55 45 39 34 35 33 26 40 33 30 30 30 29 31 29 27 29 23 31 34 20 20 21 30 24 17 18 16 16 22 25 35 31 22 15 8 -13 -10 -9 2 10 18 13 -1 -2 -6 -6 -8 -8 -6 -4 -3 -2 6 9 2 10 23 -12 -23 -23 -20 -16 -16 -18 -20 -23 -25 -26 -27 -27 -26 -24 -24 -23 -22 -20 -15 -14 -16 -20 -24 -28 -32 -35 -35 -33 -33 -38 -43 -43 -40 -39 -41 -43 -40 -35 -34 -37 -33 -33 -33 -32 -30 -29 -36 -47 -50 -48 -38 -35 -35 -40 -46 -35 -26 -37 -40 -32 -35 -32 -30 -35 -39 -43 -44 -38 -29 -30 -30 -28 -27 -26 -26 -28 -29 -27 -28 -30 -32 -31 -32 -29 -25 -30 -29 -28 -30 -31 -34 -36 -37 -36 -33 -32 -33 -34 -35 -37 -39 -37 -35 -37 -46 -48 -51 -57 -58 -62 -67 -71 -73 -74 -68 -65 -61 -69 -67 -65 -56 -64 -58 -66 -86 -91 -73 -62 -77 -51 -49 -69 -82 -85 -74 -76 -83 -85 -69 -86 -86 -75 -75 -67 -84 -69 -77 -93 -88 -83 -77 -91 -79 -83 -107 -108 -117 -123 -120
62 56 48 41 42 38 31 29 32 28 29 31 26 27 32 28 25 22 30 36 36 21 22 19 17 18 19 11 13 13 19 24 33 39 24 13 9 6 -9 -7 3 4 32 42 26 -1 -6 -8 -8 -9 -5 -5 8 13 -1 0 3 14 22 -14 -22 -24 -23 -23 -24 -26 -25 -25 -24 -26 -28 -28 -28 -28 -26 -24 -19 1 -8 -16 -25 -26 -27 -30 -33 -35 -33 -34 -35 -41 -46 -40 -32 -25 -37 -48 -42 -34 -34 -44 -36 -34 -34 -33 -41 -47 -45 -46 -51 -50 -48 -45 -46 -47 -42 -31 -33 -40 -40 -38 -22 -24 -33 -41 -42 -44 -45 -29 -35 -33 -35 -35 -34 -28 -27 -29 -30 -30 -29 -30 -29 -29 -31 -27 -26 -24 -23 -26 -31 -33 -36 -37 -37 -36 -35 -34 -31 -30 -33 -37 -39 -34 -33 -38 -48 -51 -57 -62 -64 -68 -71 -71 -65 -69 -67 -62 -68 -68 -63 -67 -60 -55 -57 -64 -89 -87 -81 -61 -61 -73 -51 -73 -88 -73 -57 -64 -88 -77 -72 -92 -77 -75 -73 -75 -85 -73 -84 -96 -94 -87 -88 -94 -67 -87 -108 -112 -121 -125 -122
63 54 41 48 46 37 26 25 24 27 28 38 36 28 25 21 19 21 27 31 31 22 18 23 25 19 14 11 3 13 21 28 27 25 17 17 17 9 3 2 3 4 17 29 13 -10 -7 -10 -11 -8 -16 1 -4 -3 -4 -3 11 19 29 8 -18 -22 -24 -25 -27 -29 -27 -26 -26 -27 -29 -29 -29 -28 -25 -21 -17 -14 -15 -21 -28 -30 -31 -32 -34 -36 -37 -39 -42 -44 -44 -38 -31 -28 -33 -38 -36 -33 -39 -47 -45 -40 -35 -42 -51 -51 -52 -48 -50 -51 -52 -50 -50 -49 -42 -33 -38 -42 -41 -38 -35 -40 -41 -40 -44 -46 -44 -44 -45 -44 -41 -37 -37 -34 -30 -30 -31 -31 -32 -31 -29 -30 -32 -28 -21 -22 -23 -28 -33 -34 -34 -35 -34 -33 -33 -34 -26 -18 -33 -40 -42 -39 -40 -43 -49 -54 -60 -62 -61 -67 -70 -74 -65 -65 -52 -58 -61 -71 -74 -70 -68 -51 -56 -77 -100 -87 -83 -74 -78 -80 -63 -77 -73 -74 -60 -56 -73 -76 -87 -78 -83 -77 -74 -75 -74 -67 -75 -80 -82 -73 -89 -75 -98 -108 -104 -103 -127 -126 -117
53 51 47 55 60 44 29 30 32 29 39 36 25 30 24 18 22 17 24 23 12 16 24 22 19 20 20 19 3 9 13 14 15 15 10 21 16 10 5 4 12 19 15 5 -9 -7 -8 -11 -16 -16 -16 -14 -5 -6 -2 0 20 26 19 11 -16 -20 -24 -26 -28 -29 -27 -25 -27 -29 -30 -30 -29 -27 -23 -18 -16 -16 -20 -26 -31 -33 -33 -33 -34 -36 -40 -43 -47 -48 -46 -39 -29 -24 -31 -36 -36 -29 -41 -44 -46 -50 -49 -50 -51 -52 -51 -49 -50 -51 -52 -51 -51 -49 -48 -47 -40 -41 -40 -38 -35 -34 -33 -36 -46 -47 -45 -38 -42 -35 -27 -24 -34 -38 -35 -33 -31 -31 -31 -31 -29 -30 -31 -22 -25 -27 -25 -29 -32 -32 -33 -33 -33 -33 -33 -26 -25 -24 -36 -44 -45 -42 -45 -51 -56 -61 -63 -65 -63 -71 -72 -74 -70 -68 -57 -73 -64 -71 -75 -70 -76 -79 -82 -85 -90 -92 -86 -69 -81 -78 -73 -70 -73 -59 -45 -51 -75 -78 -85 -78 -73 -75 -74 -72 -75 -89 -81 -88 -81 -83 -85 -90 -100 -109 -92 -105 -134 -128 -104
45 49 53 51 45 39 27 32 32 36 39 33 38 36 26 27 34 21 17 18 17 23 21 15 21 26 18 19 11 5 7 11 11 10 11 7 12 19 18 31 33 16 6 1 -11 -11 -11 -10 -13 -16 -15 -14 -12 -9 -8 -10 16 20 13 9 -15 -20 -23 -26 -29 -31 -26 -21 -29 -32 -32 -31 -30 -28 -22 -15 -15 -16 -22 -29 -35 -35 -34 -31 -31 -33 -41 -45 -49 -53 -55 -41 -24 -12 -28 -37 -33 -31 -34 -42 -46 -50 -49 -51 -51 -50 -49 -50 -51 -53 -54 -54 -52 -46 -48 -45 -42 -40 -38 -37 -35 -32 -36 -43 -49 -46 -40 -40 -42 -34 -31 -31 -33 -41 -43 -39 -33 -33 -33 -32 -29 -29 -27 -26 -26 -25 -24 -29 -31 -32 -33 -33 -35 -37 -37 -36 -35 -30 -34 -44 -46 -41 -49 -57 -61 -63 -66 -61 -68 -68 -72 -77 -74 -77 -76 -68 -69 -75 -79 -71 -74 -73 -74 -78 -84 -95 -84 -78 -87 -87 -84 -82 -74 -60 -60 -53 -77 -81 -90 -82 -82 -83 -79 -81 -86 -86 -86 -86 -74 -78 -80 -103 -109 -103 -102 -127 -129 -114 -113
38 44 51 52 50 35 33 32 32 35 42 39 35 31 37 27 23 25 26 22 21 23 26 31 30 23 20 29 24 14 10 7 5 4 6 9 29 46 40 36 23 -2 -5 -9 -11 -8 -10 -4 -17 -12 -16 -15 -12 -10 -13 -13 -5 4 1 -13 -22 -24 -25 -26 -29 -31 -29 -28 -36 -36 -34 -32 -29 4 -23 -22 -23 -26 -19 -28 -39 -32 -23 -23 -23 -25 -37 -42 -42 -52 -56 -42 -26 -16 -41 -38 -32 -28 -31 -36 -48 -50 -50 -51 -52 -52 -52 -54 -57 -56 -54 -58 -50 -35 -43 -43 -43 -40 -38 -37 -34 -32 -38 -50 -53 -47 -39 -40 -40 -35 -27 -35 -33 -37 -45 -42 -33 -37 -37 -35 -33 -32 -28 -25 -27 -26 -27 -30 -33 -34 -34 -35 -37 -39 -40 -35 -35 -39 -39 -46 -50 -48 -54 -61 -65 -70 -66 -63 -70 -75 -73 -78 -85 -85 -80 -77 -78 -76 -75 -71 -60 -68 -63 -77 -93 -91 -80 -83 -94 -84 -83 -68 -57 -61 -68 -73 -71 -79 -94 -82 -85 -85 -87 -91 -96 -95 -89 -75 -80 -80 -84 -99 -109 -92 -132 -131 -120 -102 -102
35 40 45 51 40 35 38 34 34 34 35 35 36 36 30 24 22 21 21 22 26 24 22 19 20 21 19 20 18 15 12 7 4 3 5 5 21 48 43 29 4 -5 -8 -6 -11 -11 -4 5 7 -7 -16 -16 -10 -7 -8 -7 -9 -11 -15 -19 -20 -23 -25 -27 -29 -31 -31 -32 -37 -37 -35 -33 -28 -25 -23 -23 -26 -25 -24 -26 -31 -29 -26 -23 -23 -28 -37 -48 -57 -57 -59 -42 -36 -36 -38 -35 -30 -27 -31 -38 -44 -49 -51 -52 -53 -56 -56 -55 -54 -55 -57 -52 -40 -35 -37 -38 -37 -35 -34 -34 -34 -36 -43 -45 -51 -42 -40 -39 -35 -41 -42 -43 -37 -36 -46 -42 -36 -40 -40 -38 -35 -32 -27 -29 -31 -29 -31 -34 -37 -39 -39 -38 -39 -41 -42 -39 -33 -31 -43 -50 -59 -62 -66 -68 -71 -74 -67 -64 -62 -80 -82 -81 -88 -85 -81 -69 -72 -73 -73 -73 -66 -61 -66 -84 -92 -86 -84 -83 -93 -67 -74 -64 -61 -67 -66 -69 -71 -90 -88 -85 -89 -85 -90 -93 -98 -91 -87 -87 -89 -95 -100 -103 -90 -102 -137 -120 -104 -111 -117
37 34 35 37 35 38 36 34 35 34 34 32 37 43 39 23 24 23 22 33 37 31 23 18 16 21 19 19 19 15 11 9 4 2 2 5 8 16 4 -6 -13 -13 -11 3 2 2 9 13 3 -7 -14 -15 -10 -15 -4 14 24 -10 -16 -18 -18 -21 -24 -28 -29 -31 -31 -32 -39 -37 -36 -35 -31 -25 -23 -23 -27 -27 -24 -25 -31 -28 -28 -24 -22 -28 -39 -52 -55 -59 -53 -41 -38 -36 -35 -34 -31 -31 -34 -39 -44 -48 -47 -46 -46 -50 -52 -51 -51 -55 -57 -48 -39 -37 -39 -39 -37 -34 -31 -32 -35 -42 -46 -42 -38 -37 -41 -37 -37 -45 -44 -45 -44 -47 -51 -44 -40 -43 -44 -43 -39 -34 -27 -33 -35 -32 -34 -38 -41 -43 -42 -41 -40 -41 -41 -39 -38 -43 -55 -64 -65 -70 -73 -74 -76 -74 -68 -59 -69 -79 -82 -81 -87 -86 -82 -72 -71 -68 -67 -64 -71 -61 -67 -92 -91 -89 -85 -82 -86 -61 -74 -69 -61 -65 -69 -63 -75 -89 -77 -86 -91 -90 -85 -93 -100 -83 -81 -90 -101 -96 -102 -103 -98 -124 -117 -105 -104 -114 -120
34 39 43 38 39 42 38 35 33 33 30 36 34 42 41 31 22 22 25 39 45 36 21 17 18 20 20 18 23 20 16 6 9 8 3 6 2 2 1 -3 -5 -3 3 3 8 14 19 17 13 -5 -10 -15 -13 -14 -14 -25 -6 -9 -12 -6 -13 -18 -22 -25 -27 -30 -33 -33 -34 -34 -38 -38 -37 -37 -27 -28 -36 -36 -28 -28 -31 -30 -27 -25 -28 -36 -47 -52 -54 -58 -55 -46 -41 -38 -36 -39 -38 -37 -38 -42 -46 -43 -38 -37 -39 -45 -50 -50 -50 -52 -52 -47 -43 -41 -42 -43 -41 -36 -33 -34 -39 -47 -48 -42 -37 -37 -38 -36 -37 -39 -41 -42 -44 -56 -54 -52 -40 -44 -49 -50 -49 -42 -32 -40 -40 -37 -37 -40 -43 -47 -48 -44 -42 -41 -39 -39 -42 -62 -70 -72 -68 -74 -76 -79 -79 -77 -76 -67 -75 -79 -81 -82 -82 -89 -84 -81 -75 -71 -72 -70 -73 -62 -80 -95 -92 -95 -91 -82 -64 -65 -74 -70 -73 -68 -70 -72 -90 -72 -83 -94 -97 -98 -95 -104 -88 -85 -81 -104 -110 -106 -106 -109 -123 -131 -107 -103 -106 -112 -119
45 48 48 40 44 36 39 37 36 38 34 34 30 32 37 35 33 27 24 23 20 18 18 16 16 17 17 15 11 15 11 14 12 7 11 7 5 4 4 -1 -1 0 4 7 17 29 28 24 23 15 -8 -18 -13 -16 -16 -9 -11 -9 -16 -17 -17 -18 -20 -23 -23 -30 -33 -33 -32 -35 -38 -39 -38 -33 -28 -32 -36 -36 -32 -29 -30 -30 -28 -28 -32 -39 -48 -51 -53 -55 -56 -50 -43 -39 -40 -44 -43 -42 -41 -41 -42 -40 -37 -37 -40 -45 -50 -50 -49 -47 -45 -46 -46 -43 -43 -43 -41 -36 -35 -36 -43 -49 -49 -44 -38 -38 -41 -51 -34 -31 -31 -33 -34 -55 -58 -49 -55 -55 -57 -57 -54 -43 -43 -50 -42 -46 -49 -62 -55 -61 -53 -34 -39 -34 -33 -36 -44 -70 -74 -69 -74 -78 -80 -82 -80 -79 -75 -77 -76 -80 -84 -77 -84 -90 -84 -81 -70 -65 -66 -69 -73 -64 -81 -98 -94 -85 -82 -77 -67 -74 -84 -86 -76 -75 -70 -73 -82 -91 -77 -96 -99 -99 -91 -102 -100 -95 -92 -94 -108 -112 -97 -115 -111 -103 -103 -105 -111 -114 -115
53 46 39 25 22 30 33 32 34 34 33 33 30 32 36 38 51 48 38 20 19 19 17 16 17 16 15 15 14 18 14 13 10 10 17 8 5 7 8 7 6 10 9 11 19 21 24 30 25 18 -19 -11 -18 -18 -18 -17 -16 -12 -16 -17 -17 -17 -22 -23 -26 -30 -31 -30 -29 -33 -38 -39 -39 -33 -28 -32 -36 -36 -33 -27 -26 -26 -25 -26 -29 -36 -44 -46 -50 -53 -54 -46 -37 -35 -37 -42 -44 -45 -41 -37 -38 -40 -40 -38 -39 -44 -47 -47 -45 -41 -41 -44 -43 -43 -44 -43 -41 -38 -37 -38 -46 -50 -46 -43 -41 -45 -52 -50 -39 -40 -37 -39 -52 -59 -50 -59 -59 -61 -62 -63 -61 -57 -56 -54 -45 -57 -54 -68 -68 -53 -49 -46 -43 -38 -37 -44 -53 -74 -74 -66 -81 -81 -83 -84 -84 -87 -80 -80 -80 -81 -88 -88 -88 -90 -86 -81 -71 -78 -79 -79 -79 -69 -99 -108 -93 -83 -84 -68 -69 -80 -86 -78 -71 -66 -57 -85 -70 -89 -92 -92 -100 -101 -100 -105 -101 -86 -82 -94 -116 -109 -114 -113 -105 -97 -102 -108 -118 -121 -114
45 34 21 21 25 16 18 14 14 19 25 28 30 27 28 31 41 31 27 22 22 19 17 18 18 16 18 19 24 30 23 15 11 11 9 7 9 11 10 14 28 22 20 25 19 13 20 26 23 9 -20 -4 -9 -17 -19 -18 -17 -17 -17 -17 -17 -18 -21 -24 -26 -28 -29 -28 -28 -32 -35 -36 -36 -31 -27 -32 -36 -36 -33 -26 -21 -20 -20 -22 -28 -34 -41 -43 -48 -51 -47 -35 -27 -28 -30 -37 -43 -46 -40 -34 -36 -38 -38 -37 -38 -42 -45 -43 -40 -39 -41 -42 -43 -45 -44 -44 -43 -42 -42 -46 -52 -52 -46 -48 -52 -59 -67 -62 -50 -35 -33 -35 -48 -60 -57 -64 -64 -64 -63 -63 -59 -55 -44 -44 -45 -65 -70 -70 -67 -64 -49 -42 -46 -47 -52 -69 -79 -77 -65 -76 -80 -80 -86 -86 -86 -84 -82 -79 -71 -77 -85 -89 -93 -93 -88 -85 -71 -76 -79 -84 -83 -73 -101 -103 -84 -82 -81 -79 -89 -81 -86 -75 -75 -72 -77 -74 -67 -95 -97 -104 -106 -98 -101 -100 -90 -95 -83 -78 -107 -116 -120 -111 -100 -94 -104 -114 -122 -123 -116
21 37 57 52 53 40 33 24 20 22 13 12 26 33 25 21 25 22 23 21 23 23 20 19 17 19 21 17 25 31 30 15 12 12 10 11 13 17 21 36 35 36 27 23 26 32 30 29 20 17 7 2 -13 -12 -15 -15 -15 -17 -18 -18 -18 -18 -21 -23 -25 -27 -28 -29 -29 -29 -31 -33 -33 -32 -30 -34 -38 -37 -33 -25 -19 -17 -19 -24 -34 -38 -40 -44 -46 -47 -40 -28 -24 -26 -30 -37 -43 -45 -41 -36 -36 -36 -37 -39 -39 -41 -42 -42 -43 -43 -43 -42 -45 -48 -45 -43 -43 -45 -48 -53 -57 -54 -53 -60 -66 -69 -71 -66 -59 -56 -47 -48 -51 -63 -67 -68 -67 -66 -61 -61 -56 -57 -55 -50 -49 -60 -71 -76 -75 -57 -42 -49 -55 -64 -76 -74 -77 -74 -68 -82 -82 -83 -87 -88 -91 -85 -81 -84 -79 -77 -89 -93 -95 -93 -90 -84 -80 -86 -84 -85 -89 -83 -109 -101 -84 -84 -81 -82 -86 -82 -88 -68 -64 -76 -87 -76 -78 -81 -100 -106 -107 -99 -102 -95 -110 -122 -102 -106 -112 -120 -124 -112 -101 -98 -107 -117 -117 -114 -113
36 51 64 65 48 42 34 26 23 27 19 16 22 10 7 14 17 14 13 17 14 18 17 11 17 18 20 15 16 22 19 11 12 12 12 19 25 29 40 45 45 34 23 25 38 45 37 31 24 14 13 5 -8 -14 -14 -14 -15 -16 -18 -19 -19 -19 -19 -20 -24 -27 -29 -30 -28 -28 -32 -34 -32 -32 -34 -35 -36 -34 -30 -23 -19 -18 -23 -34 -40 -39 -40 -44 -43 -44 -38 -28 -27 -30 -33 -35 -38 -40 -39 -39 -37 -37 -40 -41 -41 -40 -40 -42 -45 -47 -47 -43 -43 -46 -44 -41 -43 -48 -51 -54 -57 -56 -60 -68 -72 -73 -74 -71 -65 -62 -58 -62 -61 -67 -72 -72 -71 -69 -66 -64 -60 -60 -63 -58 -59 -68 -77 -74 -64 -52 -49 -55 -54 -66 -66 -69 -77 -76 -81 -85 -87 -88 -89 -89 -90 -87 -79 -86 -86 -87 -94 -96 -95 -93 -90 -89 -87 -90 -89 -86 -91 -96 -118 -95 -87 -87 -85 -89 -87 -77 -81 -76 -79 -85 -90 -83 -91 -91 -101 -105 -109 -109 -107 -105 -107 -108 -105 -108 -114 -121 -127 -116 -106 -106 -110 -116 -113 -109 -110
41 51 61 57 62 59 32 27 30 28 26 22 21 20 19 15 16 13 12 14 14 10 14 16 8 15 15 11 10 11 12 11 12 13 13 16 33 45 49 48 36 26 26 27 36 36 31 28 29 26 28 22 1 -14 -16 -16 -17 -17 -18 -19 -19 -18 -18 -21 -26 -30 -31 -32 -32 -33 -36 -36 -33 -32 -33 -33 -34 -31 -26 -22 -25 -28 -34 -40 -36 -33 -35 -37 -39 -43 -39 -34 -34 -34 -32 -29 -30 -31 -33 -38 -40 -39 -41 -40 -41 -42 -43 -46 -48 -50 -51 -46 -43 -44 -44 -44 -48 -53 -54 -55 -57 -59 -64 -68 -69 -70 -73 -75 -73 -70 -67 -65 -69 -75 -76 -75 -74 -73 -72 -69 -62 -68 -75 -76 -74 -81 -79 -62 -51 -53 -49 -53 -64 -75 -60 -72 -77 -77 -86 -88 -91 -90 -86 -81 -82 -88 -87 -86 -88 -91 -97 -97 -94 -92 -91 -89 -88 -88 -89 -86 -82 -96 -99 -95 -90 -89 -84 -90 -87 -84 -78 -78 -91 -93 -94 -97 -100 -104 -102 -106 -113 -115 -113 -110 -111 -111 -109 -116 -123 -126 -128 -119 -112 -113 -113 -115 -115 -115 -117
56 58 55 65 62 57 34 25 23 30 31 23 24 21 22 22 21 22 22 26 23 19 17 24 16 15 6 5 10 11 12 11 10 5 12 19 36 45 49 35 27 30 35 34 34 30 36 28 24 26 17 4 -10 -13 -16 -18 -18 -18 -18 -17 -16 -19 -23 -26 -28 -31 -32 -35 -37 -37 -35 -33 -30 -28 -27 -30 -33 -29 -24 -23 -28 -39 -43 -43 -36 -29 -26 -25 -30 -40 -42 -37 -34 -31 -26 -26 -27 -28 -31 -37 -42 -42 -40 -38 -40 -47 -51 -53 -53 -52 -51 -49 -47 -48 -48 -50 -55 -57 -56 -58 -62 -67 -71 -71 -68 -70 -75 -79 -80 -79 -78 -78 -79 -80 -80 -79 -78 -77 -77 -75 -73 -77 -79 -79 -81 -84 -77 -56 -56 -61 -56 -65 -60 -71 -70 -78 -74 -79 -88 -90 -87 -85 -81 -83 -86 -88 -93 -91 -92 -94 -97 -94 -88 -87 -89 -93 -91 -91 -83 -77 -87 -110 -96 -97 -92 -87 -89 -95 -88 -80 -87 -77 -94 -101 -102 -105 -105 -106 -108 -113 -121 -123 -121 -117 -119 -118 -114 -120 -125 -131 -124 -117 -114 -114 -113 -113 -115 -119 -114
45 49 50 46 41 38 31 25 26 28 24 27 27 23 21 22 20 21 18 28 24 23 24 31 29 29 18 10 5 11 12 13 11 8 12 14 22 32 28 23 41 45 44 34 31 30 26 33 24 13 11 6 -10 -10 -14 -18 -18 -17 -16 -16 -17 -20 -24 -24 -26 -29 -31 -34 -37 -35 -30 -27 -25 -23 -24 -28 -31 -27 -23 -25 -28 -40 -43 -43 -38 -27 -19 -17 -24 -35 -40 -36 -32 -27 -24 -28 -29 -29 -32 -36 -41 -44 -42 -41 -45 -53 -57 -57 -56 -52 -48 -51 -53 -52 -52 -56 -61 -61 -62 -64 -71 -77 -80 -78 -73 -72 -79 -83 -82 -83 -83 -83 -82 -82 -83 -82 -82 -81 -80 -80 -80 -80 -79 -76 -75 -85 -74 -59 -53 -58 -77 -64 -68 -68 -73 -82 -83 -86 -91 -87 -89 -84 -74 -86 -86 -88 -98 -96 -96 -96 -98 -85 -79 -90 -90 -83 -83 -82 -81 -89 -94 -105 -99 -98 -94 -89 -97 -96 -86 -95 -95 -91 -107 -100 -106 -109 -110 -111 -113 -119 -127 -127 -124 -122 -122 -118 -110 -108 -108 -122 -122 -113 -115 -116 -115 -113 -118 -129 -125
46 50 42 36 27 25 23 26 30 27 29 22 22 23 20 20 23 18 15 20 22 21 20 29 30 29 26 28 11 5 12 15 11 11 9 11 17 18 15 22 44 46 42 34 24 26 11 10 20 21 19 -2 -11 -12 -13 -14 -17 -16 -16 -18 -18 -20 -21 -21 -23 -27 -31 -33 -35 -32 -26 -23 -23 -23 -24 -26 -29 -27 -23 -26 -35 -39 -36 -33 -32 -24 -17 -16 -23 -33 -37 -34 -31 -26 -26 -31 -32 -33 -33 -35 -38 -43 -46 -45 -48 -55 -60 -59 -56 -52 -48 -52 -53 -50 -55 -64 -67 -69 -71 -75 -80 -81 -81 -81 -78 -77 -82 -83 -83 -83 -83 -83 -83 -83 -83 -84 -85 -84 -84 -83 -82 -81 -80 -69 -72 -77 -57 -57 -56 -70 -66 -61 -69 -72 -68 -84 -74 -88 -94 -92 -92 -93 -89 -91 -89 -94 -98 -99 -99 -98 -98 -94 -92 -96 -90 -81 -71 -67 -87 -101 -115 -100 -102 -98 -91 -92 -99 -106 -97 -100 -104 -109 -97 -101 -109 -112 -112 -114 -112 -117 -126 -128 -127 -131 -130 -116 -107 -110 -118 -126 -121 -113 -116 -119 -119 -116 -123 -130 -128
47 49 47 44 40 32 30 25 20 16 17 25 28 30 26 23 23 19 14 18 21 22 20 26 29 30 21 14 11 5 11 15 15 15 13 15 15 8 14 29 32 29 32 22 10 9 19 29 33 28 18 1 -6 -8 -10 -13 -17 -16 -18 -20 -20 -19 -19 -21 -22 -25 -28 -31 -34 -30 -24 -22 -24 -25 -24 -27 -31 -33 -25 -32 -35 -36 -30 -24 -24 -22 -18 -16 -26 -33 -35 -31 -27 -28 -31 -35 -37 -37 -37 -36 -36 -42 -47 -49 -55 -60 -63 -60 -56 -51 -47 -52 -55 -55 -64 -75 -78 -80 -81 -82 -83 -82 -82 -82 -82 -83 -84 -83 -83 -83 -83 -84 -83 -84 -85 -85 -87 -88 -87 -86 -85 -83 -81 -80 -86 -80 -59 -57 -66 -79 -78 -82 -69 -85 -89 -89 -89 -94 -96 -95 -94 -95 -95 -95 -87 -82 -92 -102 -100 -99 -98 -97 -96 -95 -87 -88 -80 -78 -76 -98 -118 -90 -100 -94 -87 -86 -97 -107 -110 -109 -111 -109 -105 -109 -115 -115 -114 -115 -111 -110 -114 -122 -129 -139 -140 -121 -111 -119 -127 -130 -134 -115 -117 -122 -122 -120 -127 -133 -131
49 45 46 46 45 42 35 26 22 17 9 12 26 38 42 29 21 23 19 13 18 19 21 24 28 20 12 8 5 16 20 27 16 13 10 9 4 4 24 18 21 27 23 11 9 6 14 22 27 27 15 5 0 -2 -7 -11 -16 -19 -21 -20 -19 -18 -18 -21 -23 -24 -25 -27 -28 -26 -24 -24 -25 -26 -27 -29 -31 -28 -28 -31 -29 -27 -24 -21 -20 -20 -18 -17 -18 -29 -30 -29 -27 -31 -39 -43 -43 -42 -40 -38 -38 -43 -49 -54 -61 -66 -65 -63 -61 -58 -59 -64 -70 -72 -78 -85 -86 -86 -86 -85 -85 -84 -84 -84 -84 -84 -84 -83 -82 -83 -83 -84 -84 -83 -82 -78 -83 -86 -89 -88 -87 -85 -85 -85 -87 -80 -68 -66 -75 -87 -90 -82 -83 -77 -91 -84 -94 -97 -98 -98 -97 -98 -98 -95 -90 -96 -99 -104 -101 -100 -99 -98 -97 -93 -80 -71 -87 -84 -90 -104 -113 -92 -99 -86 -85 -86 -95 -96 -103 -115 -119 -117 -116 -118 -120 -118 -115 -113 -113 -110 -108 -123 -137 -140 -133 -118 -115 -122 -129 -132 -130 -120 -118 -122 -124 -126 -131 -138 -139
49 44 47 47 46 45 38 27 24 17 9 9 13 37 46 34 16 21 17 15 15 24 31 23 16 8 2 4 12 12 23 25 22 10 5 4 10 10 10 3 4 4 3 3 7 11 5 5 22 29 17 13 3 5 -6 -10 -15 -19 -22 -19 -17 -17 -18 -20 -22 -24 -25 -24 -23 -23 -25 -29 -31 -32 -33 -30 -27 -26 -25 -25 -24 -21 -19 -20 -20 -19 -19 -20 -23 -29 -31 -35 -44 -44 -50 -48 -47 -45 -43 -44 -45 -47 -52 -55 -59 -63 -64 -65 -66 -65 -67 -71 -78 -83 -86 -90 -90 -88 -88 -87 -87 -87 -86 -86 -85 -86 -84 -82 -82 -83 -84 -84 -83 -80 -77 -74 -76 -84 -88 -88 -87 -87 -87 -89 -88 -84 -82 -77 -88 -92 -94 -91 -84 -80 -91 -86 -97 -102 -102 -102 -101 -100 -98 -97 -99 -100 -96 -104 -101 -101 -99 -99 -97 -96 -94 -77 -94 -96 -104 -110 -105 -95 -97 -88 -86 -80 -102 -100 -106 -118 -123 -122 -121 -120 -119 -118 -115 -112 -114 -112 -115 -135 -149 -142 -126 -119 -123 -127 -131 -133 -130 -123 -124 -126 -128 -129 -135 -143 -145
48 47 46 44 44 42 35 31 27 20 10 3 7 19 19 17 12 10 15 14 16 24 15 11 4 4 4 9 12 11 13 16 17 12 6 18 13 14 12 11 12 3 2 5 20 13 7 16 18 20 16 11 13 17 -5 -11 -14 -14 -17 -16 -16 -17 -17 -18 -22 -25 -25 -25 -24 -24 -28 -32 -35 -36 -32 -28 -25 -24 -26 -29 -27 -23 -21 -21 -21 -20 -21 -23 -26 -32 -34 -39 -44 -47 -50 -46 -43 -41 -42 -48 -51 -52 -54 -56 -59 -60 -61 -63 -64 -65 -65 -67 -78 -86 -89 -92 -91 -90 -90 -89 -88 -86 -84 -84 -84 -84 -84 -82 -83 -84 -84 -83 -81 -77 -75 -75 -80 -85 -88 -88 -88 -88 -90 -88 -91 -89 -82 -86 -95 -96 -96 -94 -92 -90 -92 -89 -100 -102 -106 -104 -103 -102 -100 -99 -101 -104 -105 -98 -99 -99 -95 -98 -98 -100 -101 -96 -102 -105 -110 -107 -94 -106 -103 -93 -96 -104 -105 -106 -109 -116 -120 -121 -123 -121 -120 -118 -115 -114 -118 -118 -125 -144 -154 -144 -129 -128 -132 -132 -133 -134 -130 -126 -128 -129 -129 -129 -136 -142 -140
46 48 45 45 40 39 32 26 19 18 10 3 1 2 4 4 4 8 6 13 14 8 5 6 2 4 8 14 14 14 13 14 11 7 9 13 18 15 11 9 3 9 9 8 12 8 10 13 13 10 19 35 33 16 -6 -12 -12 -10 -12 -13 -15 -16 -19 -22 -24 -26 -27 -26 -26 -28 -31 -33 -34 -34 -30 -25 -22 -25 -31 -34 -27 -24 -23 -22 -21 -22 -23 -25 -30 -35 -38 -44 -47 -48 -49 -46 -39 -40 -46 -50 -53 -55 -57 -60 -61 -59 -61 -64 -65 -66 -68 -74 -85 -91 -92 -92 -90 -89 -89 -88 -87 -84 -80 -78 -77 -79 -80 -81 -84 -84 -84 -82 -80 -78 -76 -79 -82 -85 -86 -89 -89 -89 -92 -88 -96 -97 -95 -99 -99 -98 -100 -96 -93 -94 -95 -100 -102 -102 -107 -104 -101 -99 -96 -97 -103 -105 -104 -102 -101 -99 -98 -96 -93 -95 -106 -106 -107 -108 -110 -107 -100 -98 -93 -91 -97 -98 -100 -102 -105 -111 -115 -120 -123 -122 -123 -122 -121 -122 -124 -126 -136 -150 -148 -137 -131 -131 -131 -131 -134 -135 -132 -129 -126 -122 -122 -126 -138 -142 -139
47 49 44 50 44 41 36 28 28 23 13 5 3 2 1 2 3 8 7 6 6 9 6 3 3 5 9 11 9 7 6 6 7 5 15 14 11 4 2 8 12 18 21 19 16 10 3 4 9 21 30 38 24 4 -3 -9 -11 -12 -12 -13 -16 -17 -21 -25 -27 -28 -28 -28 -30 -33 -34 -32 -30 -30 -30 -28 -25 -28 -34 -29 -25 -22 -20 -20 -21 -24 -27 -30 -34 -40 -45 -49 -50 -50 -49 -47 -46 -50 -50 -51 -53 -58 -60 -63 -63 -59 -62 -66 -69 -68 -73 -84 -89 -92 -92 -91 -90 -89 -89 -88 -87 -86 -81 -74 -71 -72 -74 -76 -79 -82 -80 -76 -78 -80 -80 -82 -84 -85 -87 -89 -91 -91 -93 -88 -98 -102 -104 -104 -102 -100 -99 -98 -98 -101 -97 -99 -102 -104 -104 -112 -106 -105 -104 -103 -106 -106 -104 -107 -106 -101 -103 -96 -88 -85 -99 -107 -110 -110 -110 -108 -103 -99 -93 -91 -98 -96 -94 -100 -108 -114 -118 -123 -126 -126 -126 -127 -130 -133 -133 -136 -147 -153 -147 -137 -133 -132 -127 -130 -135 -136 -135 -131 -125 -121 -121 -126 -142 -147 -143
50 52 40 46 42 39 33 24 14 13 16 11 4 1 2 3 10 6 6 4 8 8 7 2 1 9 10 11 4 4 6 11 12 18 16 18 6 2 11 21 28 25 33 28 18 15 5 4 8 25 21 21 17 22 8 -9 -11 -11 -12 -13 -18 -18 -21 -25 -28 -29 -28 -30 -36 -39 -37 -38 -31 -33 -36 -32 -27 -25 -22 -21 -21 -24 -20 -19 -20 -25 -33 -36 -38 -42 -48 -50 -48 -49 -50 -48 -48 -50 -51 -52 -54 -58 -60 -65 -67 -59 -62 -73 -78 -75 -76 -85 -91 -93 -92 -89 -90 -92 -92 -91 -90 -88 -81 -69 -64 -65 -69 -73 -77 -79 -77 -75 -76 -82 -85 -85 -86 -88 -90 -92 -94 -85 -87 -97 -101 -104 -107 -108 -109 -106 -103 -101 -98 -94 -102 -104 -105 -106 -108 -109 -106 -107 -107 -106 -106 -106 -105 -103 -105 -101 -92 -98 -96 -91 -91 -103 -113 -111 -108 -108 -103 -98 -92 -89 -98 -101 -100 -108 -116 -121 -124 -128 -131 -131 -131 -133 -138 -141 -142 -152 -161 -154 -149 -143 -136 -133 -127 -132 -139 -140 -139 -132 -127 -127 -125 -128 -144 -151 -143
46 42 39 42 42 40 29 27 29 23 16 11 6 1 2 2 3 4 4 1 11 17 6 1 1 4 12 9 5 2 10 15 23 22 14 5 2 2 11 24 34 34 31 23 16 15 15 10 13 17 16 16 21 16 9 4 -13 -15 -17 -17 -18 -19 -22 -25 -27 -30 -33 -35 -40 -39 -33 -30 -33 -39 -41 -33 -25 -24 -22 -21 -23 -25 -24 -23 -30 -33 -32 -38 -39 -42 -47 -47 -46 -48 -50 -50 -56 -53 -54 -55 -55 -56 -58 -62 -80 -91 -91 -94 -90 -84 -82 -91 -95 -94 -93 -91 -92 -93 -93 -93 -91 -88 -79 -68 -64 -64 -68 -73 -76 -78 -76 -75 -78 -83 -85 -85 -86 -89 -92 -94 -96 -97 -102 -103 -108 -114 -114 -111 -114 -114 -112 -110 -104 -99 -106 -107 -109 -108 -103 -100 -105 -104 -103 -100 -101 -101 -102 -101 -100 -102 -102 -100 -97 -91 -91 -103 -115 -112 -109 -109 -101 -94 -91 -90 -99 -103 -107 -114 -118 -122 -121 -123 -127 -129 -134 -140 -145 -146 -149 -166 -171 -154 -145 -144 -142 -135 -128 -135 -143 -145 -143 -135 -132 -136 -142 -146 -157 -155 -154
45 45 49 40 42 36 23 25 26 20 16 8 2 2 1 1 1 2 2 5 17 16 4 9 3 9 8 6 6 7 17 19 22 20 14 7 4 1 8 35 36 31 21 16 17 23 17 6 2 4 8 12 17 19 18 1 -18 -21 -22 -22 -22 -24 -26 -27 -28 -35 -36 -35 -38 -36 -29 -27 -31 -35 -34 -29 -25 -24 -24 -24 -25 -26 -28 -32 -39 -39 -38 -40 -40 -41 -44 -47 -50 -51 -52 -56 -59 -59 -59 -57 -55 -59 -63 -66 -70 -88 -91 -94 -96 -90 -85 -89 -90 -91 -92 -93 -94 -93 -93 -93 -89 -87 -80 -73 -71 -71 -74 -76 -76 -78 -78 -78 -79 -82 -83 -82 -83 -87 -92 -94 -96 -98 -102 -106 -109 -105 -97 -89 -87 -106 -111 -112 -120 -111 -108 -108 -107 -102 -99 -102 -104 -103 -101 -96 -94 -95 -99 -100 -98 -100 -101 -99 -95 -94 -100 -109 -113 -112 -110 -109 -102 -97 -94 -92 -98 -102 -106 -111 -117 -122 -118 -120 -124 -129 -137 -146 -152 -151 -156 -170 -167 -152 -148 -151 -149 -141 -135 -139 -144 -146 -145 -138 -138 -142 -144 -151 -157 -152 -144
46 51 49 41 33 31 33 29 22 25 20 13 5 10 8 14 3 1 1 2 4 3 1 1 6 8 5 4 2 7 16 16 16 20 16 10 -3 -2 8 16 20 21 20 16 16 15 6 1 -1 -4 -2 10 18 18 -11 -20 -26 -27 -27 -28 -25 -29 -29 -29 -29 -38 -35 -32 -34 -36 -35 -34 -33 -31 -29 -26 -25 -26 -27 -28 -28 -29 -31 -37 -40 -41 -43 -43 -43 -42 -42 -48 -52 -55 -60 -64 -65 -63 -62 -58 -58 -66 -71 -71 -74 -85 -90 -93 -96 -96 -82 -82 -81 -80 -81 -85 -88 -90 -92 -90 -90 -89 -84 -78 -79 -80 -82 -81 -80 -81 -82 -81 -79 -79 -79 -78 -79 -87 -94 -96 -97 -99 -102 -107 -109 -106 -108 -79 -81 -95 -105 -107 -111 -110 -109 -108 -107 -101 -98 -102 -102 -102 -100 -94 -93 -94 -98 -99 -98 -100 -99 -97 -97 -102 -109 -112 -112 -112 -111 -110 -108 -106 -102 -96 -99 -104 -107 -113 -119 -122 -122 -125 -128 -133 -140 -147 -155 -157 -160 -164 -158 -151 -152 -155 -154 -145 -144 -147 -146 -146 -148 -147 -145 -144 -146 -152 -156 -152 -145
44 49 43 34 26 29 30 24 20 9 10 14 11 12 16 28 29 19 12 2 1 1 1 1 3 4 4 4 1 7 12 19 20 16 -2 -4 -5 -4 -4 11 11 10 15 8 12 7 -1 -3 -7 -10 -10 -8 -7 -7 -18 -31 -33 -30 -29 -27 -32 -29 -32 -32 -32 -32 -32 -22 -37 -38 -37 -36 -35 -32 -30 -27 -26 -27 -28 -28 -30 -31 -32 -36 -42 -45 -46 -44 -42 -42 -43 -47 -50 -54 -61 -67 -68 -67 -65 -61 -66 -77 -83 -83 -86 -89 -90 -99 -106 -103 -95 -89 -79 -71 -71 -75 -84 -92 -101 -94 -92 -92 -90 -87 -87 -87 -87 -84 -82 -83 -84 -82 -80 -79 -77 -76 -82 -93 -98 -99 -99 -99 -98 -98 -97 -96 -90 -83 -87 -96 -100 -104 -109 -111 -111 -111 -110 -104 -101 -102 -101 -99 -95 -94 -96 -97 -98 -98 -98 -99 -96 -93 -97 -106 -113 -114 -112 -114 -114 -113 -112 -111 -104 -96 -99 -106 -113 -118 -122 -123 -124 -126 -131 -137 -142 -149 -159 -164 -164 -162 -157 -151 -151 -151 -150 -146 -149 -153 -149 -146 -149 -153 -148 -144 -147 -152 -154 -152 -146
46 44 42 38 33 31 27 22 16 18 20 17 15 15 21 34 39 29 17 3 -2 2 1 1 0 1 1 2 4 14 15 10 -5 -7 -8 -10 -11 -11 -12 -9 -7 -4 -5 -8 -5 -3 -4 -7 -13 -15 -16 -17 -20 -19 -25 -32 -32 -32 -31 -32 -35 -39 -35 -29 -25 -23 -43 -38 -39 -35 -34 -36 -37 -34 -29 -27 -27 -27 -28 -29 -30 -30 -31 -36 -44 -46 -44 -40 -38 -40 -44 -49 -52 -55 -60 -63 -66 -72 -72 -70 -73 -83 -91 -95 -98 -98 -98 -97 -99 -105 -103 -99 -89 -78 -70 -72 -81 -93 -99 -99 -96 -93 -93 -93 -93 -92 -90 -87 -84 -85 -85 -85 -85 -83 -81 -84 -92 -97 -98 -98 -97 -95 -92 -92 -96 -98 -96 -95 -98 -98 -96 -99 -106 -113 -115 -115 -113 -110 -106 -103 -103 -97 -92 -95 -98 -97 -96 -96 -98 -100 -97 -93 -100 -110 -114 -115 -115 -117 -119 -117 -111 -106 -99 -94 -100 -107 -115 -120 -124 -129 -127 -128 -135 -143 -148 -155 -163 -166 -167 -164 -156 -148 -146 -147 -146 -145 -151 -152 -148 -145 -143 -145 -144 -141 -146 -151 -152 -147 -142
44 42 40 38 31 30 27 21 18 20 17 16 13 14 14 22 26 23 17 4 1 1 -3 -1 2 3 5 10 8 5 -5 -6 -7 -8 -11 -13 -14 -15 -14 -14 -14 -10 -9 -10 -9 1 3 4 5 -14 -15 -18 -20 -20 -24 -28 -29 -32 -33 -40 -42 -45 -34 -24 -21 -32 -42 -39 -37 -34 -35 -39 -38 -35 -30 -29 -30 -30 -30 -31 -30 -29 -30 -37 -43 -44 -41 -38 -35 -38 -44 -49 -52 -58 -62 -61 -65 -70 -77 -80 -83 -88 -95 -97 -98 -98 -97 -97 -100 -102 -104 -103 -101 -93 -84 -78 -76 -87 -93 -97 -99 -94 -93 -93 -93 -92 -91 -89 -86 -86 -88 -90 -91 -89 -87 -92 -98 -97 -94 -93 -90 -89 -90 -91 -95 -98 -97 -100 -104 -100 -96 -98 -106 -114 -116 -116 -116 -114 -111 -108 -106 -102 -100 -102 -103 -99 -97 -96 -98 -101 -100 -99 -106 -115 -116 -117 -118 -120 -121 -120 -109 -103 -98 -96 -101 -108 -115 -120 -127 -133 -131 -136 -141 -146 -152 -157 -162 -163 -168 -169 -157 -147 -146 -149 -150 -149 -152 -149 -144 -141 -139 -141 -142 -142 -146 -149 -148 -145 -141
42 40 40 32 34 28 19 21 20 22 26 20 11 9 11 7 17 11 4 3 2 4 3 5 0 3 12 6 4 -7 -8 -10 -12 -14 -14 -15 -14 -15 -15 -16 -16 -13 -13 -15 2 9 10 7 -4 -11 -13 -19 -20 -21 -24 -28 -32 -36 -39 -37 -45 -46 -33 -25 -27 -37 -43 -40 -36 -36 -40 -42 -40 -37 -34 -33 -34 -34 -33 -32 -33 -35 -35 -41 -43 -40 -38 -36 -34 -37 -44 -49 -51 -58 -64 -64 -67 -72 -76 -85 -93 -95 -97 -98 -99 -99 -97 -97 -98 -99 -102 -103 -103 -99 -97 -87 -78 -82 -89 -95 -101 -99 -97 -97 -93 -93 -93 -93 -89 -86 -88 -94 -95 -95 -95 -97 -99 -95 -90 -89 -87 -86 -89 -91 -95 -98 -96 -100 -106 -105 -101 -103 -108 -114 -115 -115 -116 -117 -116 -113 -108 -106 -106 -108 -106 -102 -100 -97 -99 -100 -101 -102 -107 -115 -119 -120 -120 -120 -121 -121 -103 -100 -99 -100 -101 -104 -111 -117 -126 -134 -132 -137 -142 -145 -148 -154 -158 -157 -167 -174 -163 -153 -153 -154 -154 -152 -152 -148 -142 -139 -137 -138 -139 -141 -147 -149 -147 -141 -138
41 41 34 33 27 23 22 25 39 42 27 21 19 11 6 2 3 1 2 4 -1 -1 -1 -1 0 5 11 11 -10 -10 -11 -12 -14 -16 -17 -17 -15 -17 -18 -18 -19 -19 -19 -19 4 5 3 3 -11 -22 -29 -27 -22 -25 -32 -32 -40 -34 -47 -35 -26 -38 -38 -36 -36 -37 -40 -38 -35 -37 -39 -38 -39 -41 -41 -39 -40 -39 -37 -36 -40 -43 -44 -47 -44 -40 -36 -36 -37 -39 -45 -51 -55 -61 -65 -66 -71 -73 -78 -89 -95 -96 -98 -99 -99 -98 -96 -94 -95 -97 -100 -103 -105 -108 -103 -97 -89 -90 -95 -98 -101 -101 -97 -96 -95 -95 -94 -92 -83 -88 -89 -97 -99 -100 -100 -100 -99 -97 -92 -89 -88 -87 -89 -88 -96 -100 -99 -103 -109 -109 -108 -109 -111 -112 -112 -113 -115 -118 -118 -117 -116 -110 -110 -111 -108 -106 -106 -107 -104 -102 -100 -104 -112 -119 -122 -122 -121 -119 -114 -101 -99 -97 -101 -104 -107 -103 -104 -113 -127 -135 -132 -135 -141 -143 -144 -146 -149 -150 -160 -169 -164 -160 -159 -159 -155 -150 -149 -147 -144 -139 -134 -134 -138 -139 -140 -142 -139 -129 -135
34 33 34 30 28 24 25 30 37 37 29 21 16 9 1 1 2 5 -1 -2 -2 -3 -2 -2 -2 -3 4 10 -10 -11 -12 -13 -14 -16 -18 -19 -18 -19 -21 -21 -22 -22 -23 -23 -20 -19 -11 -7 -17 -36 -31 -28 -29 -27 -37 -38 -46 -53 -45 -32 -39 -42 -42 -44 -36 -28 -28 -29 -37 -38 -36 -33 -35 -40 -42 -43 -45 -47 -48 -48 -47 -45 -45 -43 -41 -40 -41 -44 -45 -47 -49 -50 -56 -61 -66 -74 -81 -85 -89 -93 -94 -96 -100 -98 -99 -99 -97 -93 -92 -95 -99 -103 -105 -106 -108 -106 -103 -101 -100 -99 -100 -98 -97 -96 -95 -95 -97 -95 -85 -88 -94 -99 -101 -101 -101 -99 -99 -98 -96 -90 -86 -88 -91 -91 -96 -100 -103 -110 -113 -113 -113 -113 -113 -111 -109 -108 -111 -117 -119 -119 -118 -116 -113 -112 -110 -108 -108 -109 -110 -106 -105 -109 -116 -121 -123 -123 -122 -119 -109 -101 -98 -98 -101 -109 -113 -104 -104 -117 -130 -136 -131 -134 -140 -143 -144 -144 -146 -149 -154 -164 -165 -163 -161 -158 -154 -150 -146 -144 -144 -139 -134 -134 -139 -139 -139 -139 -136 -133 -132
28 25 30 30 29 25 27 28 31 35 32 29 17 4 2 2 4 -1 -3 -5 -6 -6 -5 -4 -4 6 16 21 7 -13 -14 -14 -17 -15 -18 -20 -22 -23 -23 -24 -25 -25 -25 -23 -19 -22 -21 -24 -21 -23 -35 -32 -34 -37 -47 -48 -54 -54 -49 -51 -50 -41 -36 -32 -29 -25 -25 -16 -34 -37 -34 -32 -33 -37 -40 -46 -50 -54 -60 -56 -47 -42 -42 -39 -38 -41 -46 -49 -49 -51 -51 -52 -56 -60 -65 -74 -80 -89 -96 -96 -96 -99 -99 -98 -98 -96 -91 -87 -88 -92 -96 -99 -98 -97 -101 -106 -107 -106 -104 -102 -99 -96 -94 -94 -96 -96 -97 -90 -86 -88 -93 -99 -101 -101 -101 -101 -97 -96 -94 -90 -86 -89 -93 -93 -98 -102 -109 -117 -117 -118 -118 -118 -117 -113 -108 -108 -114 -118 -121 -121 -121 -119 -116 -113 -110 -108 -108 -111 -112 -109 -109 -110 -115 -122 -124 -123 -121 -119 -113 -107 -101 -96 -102 -111 -110 -99 -109 -125 -133 -138 -130 -130 -135 -140 -145 -146 -148 -150 -153 -159 -157 -159 -163 -163 -157 -151 -143 -137 -133 -129 -145 -133 -131 -131 -134 -136 -137 -134 -131
27 27 28 29 29 29 28 30 35 32 31 27 11 2 2 4 -1 -3 -7 -9 -10 -10 -10 -9 -10 -12 -14 -15 -17 -20 -23 -18 -20 -21 -22 -23 -25 -25 -26 -26 -27 -28 -28 -29 -28 -28 -29 -32 -34 -37 -39 -37 -33 -35 -49 -56 -57 -59 -58 -61 -59 -54 -25 -21 -26 -28 -27 -28 -32 -32 -32 -31 -33 -38 -44 -54 -59 -62 -61 -51 -43 -41 -38 -36 -37 -39 -45 -47 -48 -50 -53 -53 -61 -67 -68 -69 -70 -84 -97 -97 -98 -99 -101 -100 -99 -91 -78 -73 -76 -81 -88 -95 -95 -93 -98 -104 -106 -106 -104 -104 -100 -94 -94 -97 -98 -100 -100 -94 -91 -91 -94 -99 -100 -100 -101 -100 -97 -96 -92 -91 -89 -89 -92 -94 -99 -104 -112 -119 -120 -122 -123 -122 -120 -118 -114 -115 -118 -119 -120 -121 -121 -119 -116 -112 -109 -109 -110 -110 -109 -109 -112 -111 -116 -122 -123 -121 -121 -120 -116 -111 -105 -101 -106 -112 -108 -98 -110 -125 -134 -140 -133 -132 -135 -139 -146 -145 -146 -149 -153 -156 -157 -161 -164 -165 -161 -150 -140 -131 -128 -128 -126 -118 -125 -130 -131 -134 -134 -132 -132
25 24 23 22 24 28 28 34 32 28 27 20 13 5 4 -1 -3 -5 -8 -10 -10 -11 -11 -11 -12 -13 -14 -17 -18 -19 -21 -23 -24 -25 -26 -24 -27 -28 -27 -27 -28 -29 -30 -32 -33 -34 -36 -38 -39 -40 -41 -40 -39 -40 -49 -51 -54 -61 -58 -63 -60 -51 -20 -23 -29 -31 -30 -29 -29 -31 -33 -34 -36 -40 -49 -62 -69 -68 -61 -49 -45 -41 -37 -34 -33 -38 -44 -46 -51 -50 -52 -57 -67 -74 -73 -69 -70 -84 -97 -97 -98 -100 -101 -102 -101 -92 -77 -66 -64 -69 -80 -92 -98 -98 -100 -103 -106 -106 -103 -103 -101 -96 -98 -103 -103 -105 -105 -101 -99 -98 -100 -102 -101 -101 -101 -99 -97 -96 -94 -93 -92 -92 -94 -98 -102 -104 -112 -121 -122 -123 -123 -121 -121 -122 -120 -119 -118 -118 -120 -121 -121 -119 -114 -110 -109 -110 -110 -106 -102 -110 -117 -117 -121 -125 -124 -121 -121 -120 -117 -112 -109 -108 -107 -107 -105 -103 -114 -125 -133 -140 -138 -137 -137 -140 -145 -143 -143 -147 -150 -152 -153 -159 -164 -165 -161 -149 -137 -130 -128 -127 -122 -121 -128 -130 -132 -133 -133 -133 -134
15 19 22 16 21 28 34 34 33 26 23 20 15 5 -1 -3 -4 -6 -10 -10 -11 -12 -12 -13 -14 -14 -15 -18 -20 -22 -23 -25 -26 -27 -28 -28 -28 -27 -23 -26 -29 -27 -32 -35 -36 -38 -38 -38 -42 -43 -43 -43 -46 -48 -53 -54 -58 -60 -60 -59 -53 -49 -38 -32 -25 -33 -37 -33 -28 -31 -34 -32 -36 -41 -44 -59 -72 -74 -73 -50 -45 -58 -38 -33 -33 -35 -42 -49 -48 -51 -53 -63 -70 -76 -81 -81 -90 -100 -101 -97 -99 -101 -102 -102 -100 -95 -83 -69 -64 -68 -79 -91 -98 -100 -102 -102 -102 -106 -107 -107 -106 -102 -104 -107 -107 -107 -107 -106 -105 -105 -105 -104 -104 -105 -103 -100 -100 -101 -99 -98 -97 -98 -99 -102 -105 -104 -112 -121 -123 -121 -119 -119 -120 -121 -121 -121 -120 -119 -121 -121 -120 -117 -114 -112 -111 -108 -103 -100 -100 -110 -120 -122 -125 -128 -124 -123 -124 -121 -117 -113 -109 -107 -104 -102 -103 -106 -119 -129 -134 -138 -138 -138 -137 -140 -143 -143 -142 -145 -146 -148 -149 -155 -159 -160 -154 -143 -134 -128 -127 -124 -119 -122 -128 -132 -133 -135 -134 -133 -135
30 33 22 13 22 23 26 28 30 33 26 18 8 -1 -3 -5 -6 -7 -9 -11 -12 -12 -13 -14 -14 -14 -15 -17 -20 -22 -23 -23 -24 -28 -29 -20 -17 -21 -26 -27 -26 -30 -35 -37 -39 -40 -40 -38 -43 -46 -46 -49 -52 -51 -51 -57 -59 -60 -60 -55 -47 -45 -36 -36 -33 -37 -38 -34 -31 -35 -29 -29 -38 -41 -50 -68 -76 -77 -68 -57 -63 -75 -47 -33 -33 -37 -43 -51 -50 -55 -60 -69 -74 -81 -88 -89 -98 -101 -100 -98 -100 -103 -104 -104 -103 -99 -89 -78 -75 -75 -82 -94 -100 -102 -102 -99 -100 -106 -110 -111 -112 -110 -109 -108 -108 -109 -109 -108 -107 -107 -106 -107 -108 -108 -106 -103 -104 -104 -105 -105 -105 -104 -103 -104 -106 -105 -111 -121 -124 -120 -117 -118 -120 -121 -122 -122 -122 -122 -123 -121 -119 -117 -115 -114 -113 -104 -95 -98 -103 -109 -118 -124 -126 -127 -125 -124 -124 -121 -114 -111 -107 -105 -102 -103 -102 -102 -119 -132 -137 -138 -134 -134 -136 -137 -139 -139 -140 -141 -143 -145 -146 -151 -155 -155 -151 -144 -135 -126 -122 -120 -117 -119 -126 -130 -132 -133 -132 -131 -132
26 22 12 13 16 15 14 20 23 26 27 15 6 -4 -5 -6 -7 -8 -10 -12 -12 -13 -13 -14 -13 -12 -11 -19 -17 -17 -22 -21 -24 -29 -28 -16 -19 -24 -28 -30 -29 -28 -33 -40 -41 -43 -44 -43 -45 -49 -49 -53 -57 -57 -56 -58 -60 -61 -58 -54 -48 -40 -36 -34 -38 -42 -42 -34 -34 -35 -32 -29 -40 -42 -59 -75 -76 -73 -64 -75 -80 -80 -40 -36 -42 -45 -48 -48 -50 -55 -64 -74 -78 -87 -96 -97 -100 -101 -102 -102 -104 -106 -106 -106 -107 -105 -97 -90 -89 -87 -88 -96 -102 -104 -102 -100 -102 -108 -110 -111 -112 -111 -111 -110 -110 -111 -110 -107 -106 -106 -107 -110 -113 -112 -110 -108 -106 -106 -107 -107 -106 -105 -104 -104 -105 -105 -111 -122 -128 -127 -122 -120 -121 -122 -121 -121 -123 -124 -124 -123 -121 -117 -116 -115 -109 -101 -94 -101 -110 -113 -119 -124 -127 -128 -125 -123 -121 -118 -113 -110 -108 -107 -106 -106 -101 -102 -120 -133 -136 -137 -131 -131 -133 -133 -133 -133 -136 -139 -140 -142 -146 -150 -153 -154 -155 -149 -136 -124 -120 -119 -119 -120 -123 -127 -128 -129 -129 -129 -130
19 18 22 14 15 14 14 14 19 15 7 5 0 -4 -6 -7 -8 -9 -11 -14 -15 -16 -15 -15 -15 -14 -15 -2 3 -4 -11 -18 -24 -27 -28 -22 -23 -24 -21 -21 -27 -33 -37 -43 -42 -42 -46 -47 -38 -48 -54 -57 -59 -59 -60 -61 -62 -63 -63 -63 -58 -46 -43 -45 -43 -36 -36 -39 -32 -29 -37 -35 -34 -42 -59 -80 -84 -82 -80 -81 -78 -80 -54 -45 -46 -45 -50 -51 -49 -56 -68 -80 -86 -95 -104 -101 -99 -101 -103 -105 -106 -107 -108 -108 -107 -107 -103 -97 -94 -94 -94 -97 -102 -104 -104 -105 -106 -108 -110 -111 -112 -112 -112 -112 -112 -112 -110 -106 -106 -107 -108 -114 -117 -117 -116 -114 -110 -107 -105 -103 -102 -102 -104 -105 -105 -106 -114 -127 -131 -133 -126 -123 -122 -122 -122 -122 -124 -126 -126 -125 -124 -124 -121 -120 -110 -102 -101 -106 -113 -116 -122 -127 -128 -128 -125 -121 -118 -116 -115 -112 -109 -109 -109 -103 -99 -104 -116 -128 -135 -135 -132 -129 -128 -127 -125 -126 -132 -137 -139 -142 -146 -150 -152 -153 -148 -142 -134 -125 -123 -123 -126 -128 -129 -129 -130 -132 -131 -128 -129
21 23 21 12 13 15 14 10 16 12 4 6 -1 -5 -7 -8 -9 -10 -12 -15 -17 -19 -20 -20 -19 -17 -7 -8 -7 -10 -17 -19 -20 -27 -31 -31 -27 -22 -24 -22 -37 -41 -42 -43 -43 -43 -45 -41 -33 -37 -52 -57 -61 -62 -62 -62 -61 -56 -48 -53 -63 -58 -53 -52 -48 -41 -41 -41 -34 -27 -39 -25 -33 -37 -52 -81 -87 -87 -83 -85 -72 -77 -77 -46 -42 -45 -50 -51 -55 -66 -80 -92 -96 -100 -103 -102 -103 -105 -106 -107 -108 -109 -109 -108 -108 -105 -102 -98 -97 -98 -98 -98 -99 -101 -106 -109 -107 -110 -113 -113 -115 -116 -115 -114 -114 -114 -114 -112 -113 -113 -114 -118 -120 -118 -115 -115 -112 -109 -106 -103 -102 -103 -106 -109 -109 -109 -118 -130 -130 -128 -126 -124 -124 -123 -123 -125 -126 -127 -128 -129 -131 -131 -122 -110 -110 -108 -110 -110 -113 -121 -127 -131 -130 -130 -128 -122 -118 -118 -118 -113 -109 -110 -112 -112 -96 -102 -111 -120 -127 -127 -125 -121 -118 -118 -118 -123 -131 -136 -138 -142 -145 -150 -153 -153 -152 -137 -132 -130 -131 -132 -135 -137 -138 -138 -138 -139 -140 -142 -141
27 26 27 22 18 14 13 7 6 2 3 1 -3 -6 -7 -9 -10 -11 -13 -16 -18 -20 -22 -24 -23 -18 -14 -11 -10 -11 -15 -16 -22 -23 -34 -36 -31 -21 -21 -34 -37 -37 -39 -34 -40 -34 -29 -27 -32 -45 -40 -51 -61 -63 -62 -58 -57 -47 -43 -53 -64 -55 -45 -52 -44 -43 -45 -39 -44 -47 -47 -40 -37 -41 -49 -69 -82 -89 -87 -86 -85 -67 -70 -48 -43 -43 -61 -66 -72 -84 -95 -101 -102 -103 -103 -104 -108 -109 -109 -109 -108 -109 -109 -109 -99 -90 -96 -96 -100 -103 -101 -98 -97 -98 -105 -107 -106 -114 -117 -118 -120 -119 -119 -117 -115 -117 -118 -119 -120 -119 -119 -118 -117 -114 -112 -112 -113 -113 -111 -109 -107 -108 -112 -113 -115 -116 -121 -130 -128 -125 -125 -125 -126 -126 -125 -125 -125 -125 -127 -130 -130 -129 -127 -119 -117 -114 -114 -113 -117 -126 -130 -131 -131 -132 -129 -123 -122 -121 -118 -113 -113 -114 -114 -105 -95 -98 -108 -113 -114 -115 -114 -110 -110 -111 -114 -119 -131 -136 -137 -141 -145 -148 -149 -148 -143 -136 -133 -136 -139 -141 -144 -144 -144 -145 -145 -145 -145 -145 -144
21 22 22 14 16 15 11 12 8 3 6 -1 -4 -6 -8 -9 -11 -10 -13 -17 -18 -21 -23 -25 -27 -25 -22 -16 -15 -13 -19 -20 -24 -26 -32 -37 -35 -27 -24 -34 -37 -36 -35 -34 -29 -28 -31 -37 -38 -42 -46 -52 -61 -63 -63 -60 -61 -51 -48 -61 -60 -50 -45 -44 -37 -37 -39 -48 -55 -55 -49 -42 -40 -47 -61 -73 -81 -89 -90 -82 -72 -53 -46 -48 -50 -50 -75 -83 -89 -98 -102 -103 -103 -104 -105 -106 -109 -110 -110 -109 -108 -109 -110 -110 -98 -89 -92 -98 -103 -106 -102 -98 -96 -96 -107 -115 -112 -113 -119 -119 -121 -121 -121 -119 -116 -116 -117 -120 -121 -120 -119 -116 -114 -113 -113 -114 -115 -113 -112 -112 -111 -113 -117 -117 -117 -119 -125 -131 -126 -121 -123 -125 -126 -126 -125 -125 -123 -122 -125 -127 -127 -127 -128 -127 -124 -120 -118 -117 -120 -127 -132 -133 -131 -128 -124 -121 -121 -120 -115 -112 -115 -116 -109 -96 -91 -94 -102 -106 -106 -107 -109 -110 -111 -114 -116 -116 -127 -134 -138 -141 -145 -146 -142 -138 -134 -131 -135 -141 -143 -145 -147 -147 -148 -149 -150 -150 -150 -150 -149
7 13 18 20 17 15 17 14 15 4 5 0 -3 -7 -9 -10 -11 -13 -13 -17 -18 -21 -23 -26 -27 -25 -22 -22 -24 -22 -26 -26 -26 -25 -30 -38 -41 -40 -34 -36 -32 -29 -27 -30 -31 -34 -41 -40 -44 -47 -51 -55 -60 -64 -65 -65 -65 -65 -63 -60 -61 -56 -51 -48 -45 -54 -53 -57 -55 -49 -47 -43 -44 -53 -65 -66 -79 -90 -92 -71 -54 -45 -44 -52 -59 -71 -85 -94 -98 -103 -103 -103 -103 -105 -107 -108 -110 -110 -110 -109 -109 -110 -110 -110 -101 -99 -99 -103 -105 -104 -102 -99 -96 -96 -106 -114 -114 -116 -118 -118 -120 -122 -123 -119 -115 -115 -117 -121 -122 -121 -119 -117 -115 -116 -116 -118 -118 -115 -113 -114 -114 -114 -117 -118 -117 -117 -125 -131 -124 -121 -123 -127 -130 -130 -128 -126 -122 -120 -123 -124 -122 -125 -128 -127 -124 -120 -119 -119 -121 -124 -131 -136 -131 -124 -120 -117 -115 -114 -111 -110 -115 -116 -99 -90 -89 -91 -99 -103 -103 -104 -107 -114 -119 -121 -124 -124 -129 -134 -138 -141 -145 -139 -133 -130 -130 -132 -138 -145 -148 -149 -150 -149 -150 -152 -152 -152 -152 -152 -152
12 14 5 12 20 19 22 17 13 11 5 0 -3 -7 -11 -11 -12 -14 -15 -17 -19 -21 -23 -26 -28 -27 -28 -23 -25 -22 -20 -20 -20 -26 -31 -36 -41 -41 -37 -33 -27 -26 -26 -30 -34 -35 -40 -44 -47 -50 -53 -58 -63 -66 -66 -66 -67 -67 -65 -61 -65 -66 -59 -57 -62 -63 -65 -60 -61 -54 -48 -47 -57 -65 -63 -64 -80 -92 -98 -80 -65 -50 -48 -59 -67 -80 -93 -99 -102 -104 -102 -101 -101 -104 -108 -110 -111 -111 -110 -110 -110 -109 -109 -104 -97 -110 -107 -103 -101 -102 -102 -101 -107 -109 -111 -116 -117 -117 -117 -117 -118 -121 -125 -122 -119 -119 -123 -125 -123 -122 -120 -120 -119 -119 -118 -120 -120 -116 -116 -117 -117 -115 -115 -117 -119 -120 -128 -129 -122 -123 -125 -129 -133 -132 -128 -126 -122 -119 -121 -122 -124 -129 -131 -130 -127 -120 -117 -119 -122 -122 -130 -134 -129 -123 -121 -117 -114 -112 -108 -105 -104 -104 -96 -92 -91 -93 -102 -107 -107 -107 -108 -120 -126 -127 -129 -129 -131 -135 -139 -140 -140 -136 -127 -129 -132 -137 -140 -144 -150 -154 -152 -149 -150 -152 -152 -152 -154 -155 -156
19 8 9 14 14 14 14 18 13 14 7 1 -2 -5 -11 -11 -12 -10 -16 -17 -16 -18 -23 -26 -28 -30 -31 -25 -24 -21 -21 -20 -23 -27 -32 -33 -38 -41 -36 -29 -27 -27 -28 -32 -32 -32 -38 -48 -50 -52 -54 -63 -66 -67 -66 -67 -68 -67 -61 -62 -68 -64 -56 -50 -57 -61 -72 -69 -64 -51 -50 -53 -64 -68 -71 -71 -81 -94 -104 -77 -78 -70 -61 -60 -72 -88 -99 -103 -104 -105 -103 -102 -102 -104 -109 -111 -112 -112 -112 -111 -110 -106 -102 -99 -103 -110 -109 -107 -106 -106 -109 -114 -122 -121 -115 -116 -117 -118 -118 -118 -117 -121 -129 -127 -125 -125 -127 -127 -125 -123 -123 -122 -121 -120 -119 -120 -121 -120 -120 -121 -120 -118 -117 -119 -126 -131 -134 -129 -122 -126 -127 -129 -132 -131 -127 -127 -124 -121 -123 -125 -128 -132 -135 -137 -132 -124 -121 -124 -127 -129 -128 -126 -124 -122 -121 -119 -116 -109 -105 -104 -102 -99 -93 -94 -93 -96 -107 -113 -114 -114 -114 -123 -130 -130 -131 -131 -132 -135 -140 -140 -137 -135 -132 -134 -139 -142 -142 -148 -155 -156 -154 -150 -150 -150 -151 -153 -156 -158 -160
28 27 20 14 6 11 7 1 12 11 6 2 0 -3 -7 -9 -12 -6 -10 -15 -18 -20 -23 -26 -28 -31 -32 -24 -22 -23 -22 -22 -24 -27 -30 -33 -39 -42 -39 -33 -31 -26 -29 -37 -37 -34 -43 -52 -52 -55 -61 -66 -67 -67 -67 -67 -66 -55 -55 -56 -70 -63 -56 -56 -52 -64 -64 -63 -58 -45 -55 -64 -57 -65 -74 -80 -86 -94 -106 -90 -80 -74 -68 -66 -81 -97 -105 -108 -107 -107 -107 -108 -108 -109 -111 -113 -113 -113 -113 -112 -109 -102 -97 -98 -105 -107 -106 -111 -114 -115 -117 -120 -122 -120 -117 -115 -115 -117 -119 -121 -121 -124 -131 -131 -128 -128 -129 -128 -127 -126 -125 -124 -122 -121 -119 -120 -122 -123 -123 -123 -123 -122 -122 -124 -133 -140 -138 -129 -125 -128 -128 -131 -134 -133 -130 -129 -126 -124 -125 -127 -128 -130 -137 -143 -138 -132 -130 -130 -132 -131 -125 -121 -120 -119 -118 -118 -116 -110 -103 -102 -101 -98 -95 -94 -94 -100 -112 -117 -119 -123 -125 -129 -133 -133 -133 -133 -134 -136 -145 -144 -141 -140 -140 -141 -144 -146 -146 -156 -163 -160 -156 -152 -150 -149 -150 -152 -157 -161 -166
43 37 34 16 11 10 5 -9 1 8 8 3 0 -3 -5 -6 -7 -6 -9 -13 -18 -19 -23 -25 -28 -31 -32 -33 -29 -26 -25 -21 -25 -22 -25 -30 -38 -43 -43 -38 -31 -32 -38 -36 -36 -44 -55 -62 -64 -65 -66 -67 -68 -68 -69 -67 -60 -56 -60 -63 -59 -57 -60 -59 -64 -61 -63 -64 -66 -69 -75 -75 -54 -68 -59 -82 -87 -93 -96 -94 -88 -87 -81 -81 -94 -106 -110 -110 -109 -109 -111 -112 -113 -114 -114 -114 -114 -114 -114 -112 -106 -102 -102 -106 -106 -103 -106 -113 -117 -118 -119 -121 -124 -124 -121 -115 -119 -122 -123 -122 -123 -126 -129 -130 -131 -132 -131 -130 -130 -130 -129 -126 -123 -123 -121 -119 -122 -123 -124 -124 -125 -125 -127 -129 -138 -146 -141 -131 -127 -128 -128 -131 -135 -134 -133 -132 -130 -128 -127 -127 -128 -130 -138 -143 -140 -136 -133 -132 -132 -129 -124 -121 -119 -116 -115 -114 -112 -107 -103 -102 -99 -98 -96 -94 -93 -101 -115 -121 -124 -129 -133 -136 -137 -136 -135 -136 -137 -139 -145 -145 -146 -146 -146 -147 -149 -149 -153 -161 -166 -163 -157 -153 -150 -150 -149 -150 -155 -163 -168
39 33 19 16 20 17 8 -7 -7 3 7 4 1 -2 -4 -5 -5 1 -7 -13 -19 -17 -20 -24 -27 -30 -31 -33 -31 -30 -24 -22 -25 -24 -26 -28 -36 -43 -46 -47 -43 -36 -38 -39 -49 -59 -63 -62 -62 -65 -66 -65 -67 -69 -68 -62 -60 -62 -66 -77 -72 -65 -52 -54 -51 -62 -62 -58 -62 -75 -77 -71 -59 -56 -59 -75 -85 -88 -94 -94 -94 -97 -94 -95 -105 -111 -112 -112 -112 -112 -114 -114 -116 -118 -117 -116 -114 -112 -113 -111 -107 -106 -108 -109 -105 -102 -107 -114 -117 -118 -119 -121 -123 -125 -126 -126 -129 -126 -122 -121 -122 -124 -125 -126 -132 -135 -133 -131 -132 -133 -132 -128 -125 -125 -125 -122 -125 -127 -125 -126 -126 -127 -129 -134 -145 -153 -145 -131 -126 -127 -130 -134 -135 -135 -136 -136 -133 -131 -132 -132 -133 -133 -138 -139 -136 -131 -129 -129 -128 -126 -124 -123 -120 -115 -113 -111 -109 -108 -106 -103 -100 -99 -97 -93 -93 -101 -116 -123 -127 -132 -135 -138 -139 -137 -136 -136 -138 -140 -142 -145 -148 -149 -150 -151 -152 -152 -156 -162 -164 -162 -156 -153 -151 -149 -149 -149 -154 -161 -166
25 16 18 20 21 25 19 6 -1 -3 4 3 2 -1 -2 -3 -3 -4 -7 -10 -14 -15 -16 -20 -24 -25 -29 -34 -35 -33 -32 -30 -28 -27 -26 -30 -33 -40 -48 -50 -49 -49 -43 -49 -61 -64 -55 -44 -43 -64 -62 -58 -63 -69 -60 -60 -72 -77 -78 -78 -63 -58 -56 -49 -50 -79 -64 -51 -57 -69 -69 -68 -58 -67 -70 -79 -86 -89 -94 -94 -97 -102 -100 -102 -110 -112 -112 -112 -113 -114 -112 -111 -113 -115 -114 -113 -111 -109 -108 -108 -108 -109 -110 -110 -105 -94 -91 -100 -107 -111 -117 -119 -118 -114 -111 -127 -131 -127 -124 -121 -120 -123 -131 -138 -137 -136 -135 -133 -132 -133 -132 -130 -127 -126 -127 -125 -127 -127 -127 -127 -128 -129 -131 -138 -147 -153 -136 -122 -121 -127 -132 -137 -137 -136 -138 -139 -136 -133 -134 -136 -135 -133 -132 -135 -132 -127 -126 -125 -124 -122 -124 -125 -123 -116 -113 -110 -108 -107 -106 -105 -102 -101 -98 -93 -94 -105 -119 -126 -130 -134 -137 -138 -138 -136 -136 -139 -141 -143 -143 -146 -149 -152 -154 -155 -156 -155 -158 -161 -163 -162 -156 -154 -152 -151 -150 -150 -154 -158 -162
20 13 21 21 23 19 20 19 14 9 8 10 4 1 -1 -3 -3 -5 -5 -9 -12 -14 -13 -14 -22 -25 -23 -32 -36 -37 -38 -36 -35 -31 -29 -30 -35 -43 -49 -53 -56 -57 -56 -52 -60 -62 -57 -51 -53 -59 -55 -55 -58 -60 -62 -65 -79 -81 -82 -80 -68 -66 -65 -57 -64 -67 -48 -51 -64 -66 -58 -66 -65 -67 -68 -81 -91 -94 -97 -94 -98 -104 -105 -110 -113 -113 -112 -113 -115 -114 -110 -108 -109 -106 -103 -103 -103 -104 -110 -111 -114 -115 -114 -114 -107 -92 -82 -88 -94 -105 -115 -116 -116 -116 -121 -131 -136 -134 -131 -127 -129 -139 -139 -138 -139 -139 -137 -136 -135 -134 -133 -129 -128 -126 -125 -125 -127 -127 -128 -130 -131 -132 -134 -139 -142 -146 -133 -115 -118 -127 -135 -138 -138 -139 -141 -141 -139 -137 -137 -137 -134 -131 -130 -132 -132 -127 -125 -124 -122 -123 -126 -128 -125 -119 -114 -109 -106 -105 -104 -104 -101 -100 -97 -93 -96 -110 -125 -130 -133 -137 -140 -140 -139 -138 -138 -142 -146 -147 -148 -149 -151 -156 -159 -158 -158 -159 -161 -161 -161 -160 -156 -156 -156 -155 -154 -154 -155 -156 -156
19 18 19 21 23 24 19 19 20 17 14 8 2 4 1 -2 -3 -5 -7 -7 -5 -12 -7 -14 -18 -20 -24 -23 -30 -36 -38 -40 -43 -42 -37 -36 -41 -47 -49 -51 -54 -61 -56 -61 -60 -59 -56 -52 -56 -56 -53 -54 -47 -46 -64 -76 -81 -84 -85 -82 -75 -73 -70 -71 -67 -63 -63 -59 -74 -80 -67 -57 -65 -59 -59 -82 -94 -97 -101 -96 -97 -103 -110 -117 -115 -114 -116 -118 -118 -115 -110 -110 -111 -104 -98 -102 -105 -109 -116 -118 -114 -113 -114 -113 -110 -99 -88 -90 -94 -104 -116 -115 -117 -121 -124 -131 -137 -138 -137 -137 -138 -139 -139 -140 -140 -141 -143 -143 -140 -137 -135 -131 -129 -128 -126 -127 -126 -127 -130 -132 -133 -137 -140 -140 -140 -144 -139 -130 -135 -134 -136 -140 -139 -139 -139 -139 -139 -139 -138 -136 -135 -134 -130 -131 -132 -129 -122 -118 -118 -122 -126 -126 -125 -121 -115 -108 -105 -104 -102 -101 -99 -97 -94 -91 -100 -115 -127 -132 -135 -141 -143 -142 -141 -140 -139 -142 -146 -148 -149 -150 -153 -158 -160 -160 -161 -162 -164 -162 -160 -158 -157 -158 -158 -157 -157 -156 -156 -156 -157
22 19 20 22 22 22 21 20 21 22 16 12 11 5 6 3 1 -5 -4 -3 3 -8 -14 -21 -18 -21 -19 -15 -22 -29 -37 -43 -43 -47 -47 -39 -47 -43 -42 -44 -50 -61 -63 -58 -54 -60 -59 -54 -54 -50 -45 -49 -47 -45 -54 -72 -82 -86 -87 -85 -79 -73 -74 -76 -62 -72 -72 -65 -72 -80 -60 -54 -56 -59 -59 -79 -95 -99 -104 -102 -101 -104 -111 -117 -114 -113 -115 -115 -114 -111 -109 -111 -113 -108 -106 -108 -109 -112 -113 -116 -111 -108 -112 -112 -111 -103 -95 -98 -103 -109 -117 -118 -116 -116 -122 -131 -135 -139 -140 -141 -142 -141 -141 -142 -142 -142 -143 -143 -143 -140 -135 -133 -132 -130 -129 -128 -129 -131 -132 -132 -134 -140 -143 -144 -144 -149 -143 -139 -139 -138 -139 -139 -138 -136 -135 -136 -139 -137 -135 -134 -134 -132 -130 -129 -126 -121 -114 -110 -110 -111 -117 -120 -120 -119 -115 -109 -106 -104 -101 -99 -97 -95 -92 -91 -103 -119 -130 -133 -136 -140 -143 -142 -140 -140 -140 -141 -145 -148 -149 -150 -152 -155 -159 -163 -164 -164 -165 -164 -161 -160 -159 -158 -158 -158 -157 -156 -156 -156 -157
20 19 17 19 21 21 21 22 22 22 20 19 13 5 2 1 4 4 9 6 11 10 3 -10 -10 -9 -17 -20 -26 -32 -41 -37 -34 -46 -48 -43 -43 -41 -41 -44 -53 -61 -63 -58 -56 -62 -64 -57 -57 -53 -48 -51 -52 -52 -57 -69 -82 -87 -88 -87 -83 -72 -73 -66 -75 -67 -69 -75 -80 -68 -60 -55 -60 -64 -64 -82 -93 -97 -105 -108 -108 -108 -113 -117 -113 -111 -110 -108 -105 -102 -105 -108 -110 -110 -108 -103 -102 -104 -106 -110 -111 -110 -112 -112 -112 -110 -108 -110 -112 -113 -116 -119 -118 -116 -123 -134 -138 -142 -144 -146 -148 -145 -144 -145 -145 -145 -145 -143 -142 -143 -133 -133 -134 -133 -132 -131 -132 -133 -133 -133 -137 -140 -141 -142 -143 -156 -142 -139 -139 -137 -137 -136 -136 -134 -134 -141 -133 -133 -133 -134 -133 -132 -128 -126 -121 -114 -110 -109 -104 -101 -102 -105 -107 -111 -114 -110 -106 -104 -101 -99 -96 -95 -93 -95 -108 -123 -132 -135 -137 -140 -144 -143 -140 -141 -142 -143 -146 -149 -150 -151 -152 -154 -158 -163 -165 -166 -166 -165 -164 -163 -161 -159 -159 -159 -160 -160 -159 -159 -160
20 19 19 21 18 20 23 23 21 22 25 19 13 5 4 0 1 1 7 5 9 0 -3 -4 -10 -13 -21 -18 -19 -31 -39 -40 -35 -46 -50 -50 -48 -47 -49 -54 -51 -60 -60 -56 -58 -57 -63 -61 -61 -62 -54 -56 -61 -70 -70 -75 -85 -88 -88 -87 -86 -80 -73 -78 -58 -72 -76 -84 -77 -71 -66 -63 -67 -71 -71 -77 -83 -90 -103 -111 -114 -115 -117 -118 -115 -113 -110 -102 -99 -99 -102 -106 -108 -110 -107 -100 -102 -104 -106 -110 -111 -111 -112 -113 -116 -118 -118 -118 -117 -117 -118 -120 -123 -125 -130 -137 -139 -142 -143 -145 -147 -147 -147 -148 -149 -148 -146 -142 -140 -139 -135 -133 -133 -134 -135 -135 -134 -134 -135 -137 -140 -140 -140 -141 -142 -139 -131 -135 -136 -135 -134 -134 -134 -134 -135 -134 -134 -133 -133 -133 -132 -132 -130 -127 -122 -116 -113 -110 -103 -98 -95 -93 -95 -100 -107 -109 -107 -105 -100 -98 -96 -95 -94 -99 -113 -128 -137 -139 -141 -142 -144 -144 -142 -143 -144 -145 -147 -148 -149 -151 -151 -155 -158 -162 -167 -168 -167 -166 -164 -163 -162 -160 -159 -160 -161 -161 -161 -162 -163
15 16 17 13 19 22 21 17 20 23 26 21 15 9 4 2 -3 -4 -3 -2 -1 -3 -5 -9 -16 -22 -25 -31 -36 -40 -44 -47 -47 -36 -40 -44 -42 -48 -53 -56 -55 -56 -48 -64 -68 -70 -74 -73 -64 -56 -70 -81 -80 -81 -82 -85 -87 -90 -87 -82 -82 -83 -83 -88 -84 -85 -78 -87 -82 -77 -76 -76 -74 -72 -72 -77 -78 -84 -99 -111 -117 -120 -119 -118 -117 -116 -111 -100 -98 -100 -101 -104 -107 -109 -108 -104 -103 -105 -107 -108 -109 -112 -113 -115 -119 -120 -118 -117 -117 -117 -118 -123 -130 -133 -133 -135 -137 -140 -141 -144 -147 -149 -150 -150 -149 -146 -144 -141 -140 -139 -138 -137 -137 -138 -140 -138 -137 -138 -138 -139 -140 -140 -144 -151 -141 -137 -134 -134 -134 -135 -136 -137 -135 -136 -136 -136 -135 -132 -131 -129 -130 -130 -131 -129 -123 -119 -117 -113 -107 -101 -95 -92 -91 -92 -98 -103 -104 -102 -99 -99 -98 -97 -98 -105 -119 -134 -141 -143 -144 -142 -143 -144 -144 -144 -146 -147 -147 -147 -149 -151 -152 -156 -160 -163 -168 -168 -167 -165 -161 -161 -160 -159 -161 -162 -163 -163 -164 -165 -165
23 23 22 17 20 14 14 20 16 24 21 20 13 4 -2 -5 -6 -6 -7 -6 -5 -6 -8 -13 -18 -13 -19 -31 -36 -42 -44 -46 -50 -57 -55 -39 -31 -35 -51 -51 -63 -66 -67 -68 -70 -72 -63 -72 -75 -56 -68 -82 -84 -85 -86 -87 -88 -89 -87 -82 -81 -82 -90 -73 -84 -89 -92 -92 -89 -83 -83 -85 -77 -68 -72 -79 -78 -86 -99 -109 -119 -122 -120 -118 -115 -110 -104 -99 -99 -100 -99 -101 -105 -106 -108 -106 -105 -107 -107 -106 -109 -112 -112 -116 -120 -121 -120 -120 -120 -120 -121 -126 -133 -134 -133 -135 -138 -140 -142 -145 -147 -149 -150 -152 -151 -144 -144 -143 -141 -142 -142 -142 -141 -140 -140 -139 -139 -141 -141 -141 -143 -150 -153 -148 -143 -141 -139 -138 -137 -136 -133 -135 -135 -135 -137 -137 -136 -134 -127 -126 -127 -128 -130 -129 -125 -121 -119 -116 -110 -104 -98 -97 -96 -95 -96 -98 -99 -99 -99 -100 -102 -103 -106 -113 -126 -139 -146 -148 -147 -145 -145 -147 -147 -147 -147 -147 -147 -149 -151 -153 -153 -157 -161 -165 -169 -168 -166 -163 -161 -160 -160 -161 -162 -165 -167 -167 -166 -167 -166
20 24 17 19 17 13 12 18 15 18 19 17 13 -1 -6 -10 -11 -11 -14 -13 -12 -11 -9 -14 -15 -17 -21 -23 -34 -42 -45 -47 -53 -58 -61 -59 -56 -59 -63 -67 -68 -68 -70 -71 -73 -75 -72 -76 -72 -79 -84 -86 -87 -88 -88 -89 -90 -89 -86 -82 -79 -80 -89 -93 -93 -94 -96 -96 -92 -84 -83 -87 -82 -75 -76 -79 -78 -90 -102 -109 -119 -122 -119 -119 -116 -106 -101 -101 -93 -97 -94 -98 -103 -106 -110 -110 -110 -111 -110 -111 -114 -114 -113 -117 -122 -125 -127 -128 -128 -128 -128 -131 -133 -134 -134 -135 -139 -141 -143 -145 -146 -147 -147 -156 -156 -152 -146 -144 -142 -143 -143 -143 -142 -140 -139 -138 -140 -143 -144 -149 -158 -165 -161 -151 -148 -141 -139 -139 -139 -135 -133 -133 -133 -134 -136 -136 -135 -132 -129 -127 -126 -128 -129 -128 -126 -122 -120 -118 -110 -106 -104 -102 -104 -106 -104 -102 -103 -102 -102 -104 -108 -110 -113 -121 -134 -145 -150 -152 -150 -149 -151 -150 -150 -149 -148 -148 -148 -151 -152 -152 -151 -154 -162 -167 -170 -169 -166 -163 -162 -160 -160 -161 -164 -167 -168 -168 -167 -166 -165
26 24 21 16 14 20 23 16 12 15 15 10 4 -4 -8 -12 -13 -14 -12 -17 -21 -19 -17 -18 -18 -19 -21 -21 -29 -39 -43 -47 -53 -58 -60 -62 -65 -66 -67 -69 -70 -66 -71 -70 -75 -79 -78 -80 -78 -82 -89 -85 -87 -89 -90 -91 -91 -90 -84 -77 -81 -84 -82 -78 -81 -82 -93 -101 -97 -87 -80 -81 -82 -83 -81 -80 -81 -91 -101 -108 -118 -121 -118 -115 -113 -106 -100 -99 -98 -90 -91 -99 -104 -107 -111 -113 -114 -114 -115 -118 -119 -119 -119 -122 -126 -129 -132 -132 -131 -131 -132 -133 -134 -135 -135 -137 -140 -143 -145 -147 -152 -160 -160 -161 -163 -155 -151 -147 -144 -143 -143 -141 -140 -139 -138 -138 -141 -147 -152 -163 -170 -167 -157 -150 -146 -138 -138 -136 -134 -131 -132 -132 -132 -132 -132 -134 -134 -133 -132 -125 -120 -123 -127 -127 -126 -124 -120 -119 -118 -111 -110 -110 -112 -116 -117 -113 -112 -111 -110 -111 -114 -117 -120 -128 -142 -151 -151 -152 -151 -152 -155 -154 -153 -152 -151 -150 -148 -145 -149 -150 -150 -157 -164 -167 -169 -169 -166 -163 -162 -161 -161 -162 -164 -165 -165 -167 -167 -164 -164
26 23 24 22 13 16 19 14 8 13 9 7 4 -6 -9 -13 -16 -16 -15 -20 -20 -22 -17 -16 -19 -21 -25 -22 -29 -34 -37 -41 -53 -58 -59 -61 -66 -68 -70 -72 -69 -66 -74 -74 -80 -82 -84 -85 -87 -88 -87 -81 -83 -90 -93 -94 -93 -90 -86 -76 -77 -80 -80 -79 -81 -84 -92 -100 -98 -92 -81 -80 -78 -79 -82 -82 -83 -90 -97 -105 -117 -120 -118 -113 -111 -109 -105 -103 -97 -91 -96 -105 -108 -110 -113 -116 -117 -118 -119 -122 -125 -126 -127 -130 -132 -133 -136 -136 -135 -135 -135 -135 -136 -137 -137 -139 -142 -146 -148 -152 -157 -159 -159 -158 -159 -155 -150 -148 -145 -144 -142 -142 -140 -140 -139 -142 -146 -151 -161 -168 -166 -158 -148 -144 -141 -138 -136 -133 -132 -129 -127 -127 -130 -132 -132 -132 -132 -132 -131 -130 -124 -124 -124 -126 -126 -126 -125 -121 -118 -116 -119 -122 -123 -125 -127 -124 -121 -121 -120 -120 -119 -127 -132 -138 -150 -155 -152 -151 -150 -153 -155 -157 -157 -156 -155 -152 -145 -141 -142 -146 -151 -161 -165 -166 -168 -168 -166 -164 -162 -163 -164 -164 -164 -164 -164 -167 -168 -167 -166
23 18 16 18 21 15 15 17 8 5 3 -2 -4 -7 -10 -14 -18 -22 -22 -21 -18 -19 -17 -20 -18 -20 -26 -28 -32 -37 -37 -34 -51 -58 -60 -63 -68 -70 -72 -74 -71 -74 -75 -80 -82 -83 -85 -88 -89 -89 -85 -80 -82 -90 -96 -98 -100 -89 -89 -85 -75 -76 -79 -81 -83 -85 -87 -89 -89 -92 -98 -90 -85 -81 -82 -83 -83 -87 -92 -99 -112 -119 -118 -116 -115 -115 -112 -108 -104 -99 -104 -111 -113 -115 -119 -120 -119 -120 -122 -126 -129 -133 -135 -135 -135 -137 -140 -142 -140 -139 -138 -137 -139 -140 -141 -143 -146 -149 -151 -154 -157 -158 -158 -158 -155 -150 -147 -146 -144 -144 -153 -141 -141 -141 -145 -151 -151 -154 -161 -165 -159 -149 -144 -142 -141 -138 -136 -132 -131 -128 -125 -125 -127 -132 -132 -131 -131 -130 -129 -128 -127 -126 -130 -132 -132 -128 -127 -125 -120 -117 -125 -133 -132 -130 -130 -129 -128 -128 -128 -128 -132 -141 -141 -148 -157 -157 -153 -150 -150 -152 -154 -157 -160 -159 -158 -155 -148 -143 -142 -146 -156 -163 -164 -166 -168 -167 -166 -165 -164 -165 -165 -165 -165 -165 -166 -168 -169 -170 -170
23 17 15 13 8 10 13 12 8 2 2 2 -8 -10 -12 -17 -21 -24 -23 -22 -18 -18 -22 -22 -27 -26 -30 -35 -35 -35 -34 -35 -51 -57 -61 -67 -70 -72 -74 -75 -76 -72 -77 -80 -82 -83 -85 -88 -91 -91 -85 -78 -87 -92 -99 -103 -104 -100 -97 -90 -80 -77 -78 -79 -83 -85 -85 -85 -86 -91 -96 -96 -94 -92 -93 -88 -82 -87 -91 -95 -109 -118 -118 -118 -117 -118 -117 -113 -109 -108 -111 -115 -116 -119 -123 -124 -123 -124 -126 -131 -133 -134 -135 -134 -136 -139 -143 -146 -145 -144 -141 -139 -141 -142 -144 -147 -149 -151 -153 -154 -155 -157 -159 -159 -157 -155 -152 -147 -144 -145 -146 -141 -139 -143 -148 -151 -152 -154 -160 -162 -155 -147 -145 -143 -140 -138 -136 -132 -129 -127 -126 -125 -123 -122 -126 -130 -131 -130 -129 -128 -128 -130 -134 -132 -130 -129 -128 -128 -123 -117 -131 -137 -135 -133 -132 -132 -131 -131 -131 -133 -139 -143 -145 -153 -160 -158 -153 -151 -150 -152 -154 -158 -160 -159 -158 -155 -152 -152 -149 -151 -158 -164 -166 -167 -168 -167 -166 -165 -165 -166 -166 -165 -165 -166 -167 -168 -168 -170 -173
20 13 14 14 11 16 15 9 2 6 -3 -6 -12 -15 -17 -20 -23 -28 -23 -21 -17 -20 -25 -30 -31 -35 -32 -35 -35 -34 -32 -40 -42 -42 -52 -65 -71 -73 -75 -77 -77 -77 -78 -81 -83 -84 -86 -89 -91 -92 -91 -88 -91 -90 -99 -104 -104 -105 -105 -97 -81 -77 -76 -79 -83 -88 -88 -89 -91 -92 -95 -96 -98 -102 -102 -96 -92 -95 -97 -97 -109 -119 -120 -120 -120 -123 -125 -118 -112 -113 -115 -119 -120 -123 -126 -127 -127 -128 -131 -136 -135 -133 -134 -134 -136 -140 -145 -148 -148 -147 -143 -141 -144 -147 -148 -150 -151 -152 -152 -154 -156 -158 -159 -159 -158 -158 -156 -153 -151 -152 -152 -145 -140 -147 -151 -152 -152 -155 -161 -157 -152 -148 -146 -143 -138 -135 -133 -130 -129 -126 -123 -122 -122 -122 -127 -132 -135 -133 -130 -130 -131 -132 -133 -132 -131 -131 -130 -130 -130 -130 -138 -139 -138 -135 -134 -133 -132 -132 -133 -136 -143 -146 -148 -156 -161 -159 -155 -153 -153 -151 -155 -156 -160 -159 -156 -153 -152 -154 -153 -155 -162 -165 -167 -168 -168 -166 -166 -166 -166 -165 -164 -162 -161 -166 -168 -169 -168 -169 -171
12 13 9 9 6 13 14 5 -4 -5 -5 -6 -18 -19 -21 -25 -24 -23 -19 -22 -22 -18 -24 -36 -38 -33 -36 -32 -37 -39 -38 -37 -38 -45 -64 -67 -71 -74 -76 -77 -77 -79 -80 -78 -79 -81 -86 -89 -91 -93 -93 -89 -89 -96 -100 -102 -103 -105 -105 -104 -75 -75 -77 -78 -81 -87 -87 -88 -90 -94 -98 -98 -102 -106 -105 -104 -105 -106 -102 -100 -106 -117 -123 -123 -122 -123 -124 -119 -114 -116 -119 -121 -124 -127 -129 -129 -130 -131 -134 -139 -138 -135 -137 -138 -139 -142 -145 -147 -147 -147 -146 -144 -147 -149 -149 -150 -152 -153 -154 -155 -157 -159 -160 -158 -156 -157 -158 -158 -158 -159 -157 -150 -146 -150 -153 -153 -157 -162 -158 -154 -152 -150 -147 -142 -135 -133 -131 -127 -126 -124 -122 -122 -122 -127 -135 -139 -141 -138 -135 -135 -136 -136 -133 -131 -131 -132 -132 -132 -131 -134 -138 -138 -138 -137 -134 -133 -133 -133 -134 -138 -144 -145 -148 -154 -159 -159 -156 -153 -152 -152 -155 -157 -159 -158 -155 -151 -150 -152 -154 -159 -164 -165 -166 -166 -166 -165 -165 -166 -166 -165 -163 -161 -163 -167 -168 -172 -168 -167 -167
13 5 4 4 8 6 5 6 13 -8 -9 -11 -15 -21 -24 -23 -29 -27 -24 -22 -19 -21 -24 -30 -32 -31 -38 -35 -40 -40 -36 -36 -33 -34 -50 -41 -48 -67 -76 -78 -79 -80 -82 -83 -83 -85 -87 -89 -89 -89 -87 -80 -89 -99 -100 -101 -103 -104 -104 -104 -88 -84 -82 -82 -80 -76 -76 -79 -85 -92 -97 -100 -104 -107 -109 -111 -112 -112 -107 -105 -110 -117 -122 -124 -123 -120 -119 -119 -119 -119 -122 -125 -127 -128 -128 -129 -132 -133 -135 -138 -138 -136 -138 -140 -142 -144 -145 -146 -147 -147 -147 -147 -147 -148 -149 -151 -156 -157 -156 -157 -159 -163 -163 -159 -159 -158 -157 -157 -157 -156 -152 -150 -151 -154 -156 -159 -167 -169 -160 -153 -151 -149 -147 -143 -138 -129 -126 -124 -124 -125 -128 -130 -131 -139 -144 -144 -143 -142 -141 -140 -139 -140 -135 -130 -130 -131 -132 -132 -131 -136 -138 -138 -138 -136 -131 -131 -133 -134 -136 -140 -145 -146 -149 -153 -155 -158 -157 -155 -153 -153 -154 -157 -158 -157 -155 -153 -152 -153 -155 -160 -162 -163 -165 -165 -164 -164 -165 -166 -166 -165 -163 -161 -164 -167 -173 -175 -168 -169 -171
9 2 3 5 4 3 1 -6 -10 -12 -13 -15 -17 -22 -25 -29 -33 -24 -26 -27 -23 -22 -26 -29 -32 -32 -34 -40 -40 -37 -33 -35 -41 -45 -42 -39 -41 -56 -73 -78 -80 -81 -82 -84 -85 -87 -88 -93 -95 -87 -87 -77 -92 -99 -100 -101 -102 -102 -102 -95 -87 -86 -86 -86 -82 -75 -71 -72 -77 -84 -87 -96 -105 -106 -109 -113 -116 -116 -115 -116 -121 -124 -123 -125 -125 -120 -117 -119 -122 -127 -129 -130 -131 -130 -129 -130 -133 -133 -134 -135 -135 -135 -139 -143 -144 -146 -147 -147 -148 -148 -148 -147 -146 -148 -149 -153 -158 -160 -158 -159 -161 -166 -165 -161 -160 -157 -156 -158 -157 -155 -154 -155 -158 -159 -159 -163 -166 -164 -157 -153 -151 -149 -148 -146 -145 -128 -123 -124 -128 -132 -135 -138 -141 -144 -144 -144 -144 -144 -143 -142 -141 -142 -137 -131 -131 -130 -132 -133 -134 -137 -139 -138 -137 -133 -129 -130 -132 -134 -137 -141 -146 -149 -151 -152 -152 -157 -158 -157 -156 -153 -153 -158 -160 -159 -159 -155 -152 -153 -154 -158 -160 -160 -166 -167 -167 -167 -168 -168 -168 -167 -166 -166 -167 -170 -173 -173 -169 -170 -175
4 3 2 2 1 -1 -5 -10 -15 -14 -16 -18 -18 -24 -26 -31 -32 -25 -28 -29 -28 -24 -26 -28 -31 -32 -33 -43 -39 -42 -39 -36 -38 -35 -39 -43 -42 -50 -69 -78 -80 -82 -83 -85 -86 -87 -88 -110 -116 -110 -102 -76 -86 -99 -100 -101 -102 -102 -101 -87 -88 -89 -91 -91 -90 -79 -75 -71 -69 -72 -76 -95 -102 -104 -109 -112 -114 -118 -124 -127 -129 -128 -126 -126 -126 -120 -115 -119 -125 -132 -134 -133 -133 -133 -133 -133 -135 -135 -136 -138 -137 -139 -143 -147 -149 -151 -151 -150 -150 -149 -150 -149 -149 -151 -150 -155 -158 -160 -161 -161 -163 -166 -164 -162 -160 -159 -160 -161 -161 -160 -161 -163 -164 -161 -160 -160 -158 -153 -152 -153 -152 -150 -149 -149 -127 -121 -126 -131 -137 -140 -142 -141 -143 -145 -147 -148 -148 -148 -146 -144 -145 -147 -139 -132 -134 -140 -137 -134 -137 -135 -138 -140 -137 -131 -130 -128 -130 -136 -140 -143 -144 -147 -152 -148 -149 -154 -157 -157 -157 -162 -160 -161 -162 -164 -162 -158 -148 -158 -152 -162 -166 -170 -172 -173 -169 -170 -173 -171 -170 -169 -169 -169 -170 -172 -173 -172 -170 -170 -176
2 0 -1 -2 -3 -7 -11 -14 -15 -14 -19 -20 -23 -28 -30 -33 -34 -31 -32 -29 -27 -27 -28 -28 -32 -33 -34 -39 -40 -43 -43 -35 -38 -36 -38 -43 -42 -45 -64 -78 -80 -82 -83 -84 -86 -87 -89 -101 -105 -107 -82 -82 -86 -98 -98 -101 -105 -105 -105 -105 -98 -95 -97 -98 -100 -84 -80 -76 -69 -67 -67 -84 -95 -98 -106 -112 -115 -117 -123 -132 -134 -134 -131 -129 -127 -120 -117 -122 -127 -131 -135 -136 -135 -136 -137 -139 -141 -141 -142 -142 -143 -146 -149 -150 -153 -156 -154 -153 -152 -152 -152 -152 -154 -156 -158 -163 -160 -160 -161 -164 -166 -165 -165 -165 -166 -165 -167 -167 -164 -162 -162 -165 -167 -166 -165 -163 -159 -153 -153 -153 -152 -151 -144 -140 -129 -130 -135 -139 -142 -142 -143 -143 -143 -145 -149 -150 -150 -151 -149 -148 -149 -148 -138 -132 -137 -142 -137 -136 -139 -137 -139 -141 -141 -135 -130 -130 -133 -138 -141 -144 -145 -149 -150 -147 -148 -152 -157 -160 -163 -163 -161 -162 -164 -163 -157 -154 -150 -161 -169 -170 -171 -172 -173 -173 -171 -173 -176 -170 -171 -172 -171 -172 -175 -171 -170 -168 -167 -168 -168
2 -3 -4 -6 -7 -10 -17 -21 -19 -20 -23 -23 -24 -29 -32 -36 -38 -36 -32 -32 -30 -28 -30 -34 -32 -36 -32 -35 -40 -46 -44 -38 -36 -36 -39 -44 -49 -45 -51 -62 -78 -81 -78 -78 -84 -87 -90 -91 -92 -110 -84 -83 -82 -96 -98 -101 -104 -103 -102 -102 -102 -97 -98 -100 -97 -88 -81 -78 -73 -71 -69 -78 -86 -90 -101 -112 -117 -120 -126 -132 -137 -140 -139 -132 -125 -124 -126 -129 -130 -132 -136 -137 -137 -139 -141 -144 -147 -147 -148 -148 -150 -153 -156 -155 -156 -157 -157 -155 -153 -154 -155 -156 -157 -158 -160 -161 -162 -163 -165 -169 -170 -168 -168 -170 -171 -171 -172 -172 -165 -161 -163 -166 -167 -168 -169 -164 -159 -157 -156 -155 -149 -144 -137 -137 -133 -136 -140 -143 -144 -144 -144 -144 -145 -145 -147 -149 -150 -155 -152 -152 -151 -149 -142 -132 -142 -146 -143 -141 -144 -142 -143 -143 -149 -147 -141 -136 -138 -140 -142 -144 -144 -148 -148 -149 -149 -149 -154 -166 -169 -166 -164 -164 -164 -161 -154 -157 -158 -167 -176 -175 -175 -174 -173 -171 -170 -170 -172 -171 -171 -171 -171 -171 -173 -171 -170 -172 -171 -166 -164
4 -5 -7 -9 -11 -13 -21 -18 -23 -24 -26 -24 -29 -33 -34 -37 -37 -38 -32 -32 -32 -31 -31 -34 -33 -33 -33 -37 -41 -42 -45 -40 -45 -42 -44 -51 -43 -47 -45 -48 -67 -79 -80 -81 -85 -86 -90 -94 -95 -87 -82 -82 -88 -96 -95 -91 -89 -99 -101 -103 -108 -101 -101 -102 -99 -90 -85 -80 -75 -75 -72 -76 -79 -84 -97 -111 -118 -121 -128 -133 -136 -138 -140 -134 -124 -126 -132 -134 -135 -137 -138 -138 -139 -141 -143 -146 -151 -153 -155 -157 -156 -157 -158 -157 -158 -159 -159 -158 -157 -158 -157 -157 -158 -158 -158 -161 -164 -164 -167 -172 -173 -173 -172 -172 -173 -175 -177 -174 -168 -163 -163 -164 -165 -167 -168 -165 -160 -159 -159 -159 -147 -143 -140 -140 -138 -141 -143 -145 -146 -146 -147 -147 -147 -148 -149 -149 -150 -156 -155 -155 -151 -149 -149 -139 -145 -149 -144 -146 -147 -148 -148 -146 -153 -152 -148 -142 -142 -143 -141 -145 -149 -149 -148 -150 -149 -147 -151 -166 -172 -170 -169 -165 -161 -160 -160 -165 -170 -170 -173 -174 -174 -172 -172 -171 -169 -166 -165 -167 -170 -173 -175 -172 -170 -169 -175 -175 -169 -164 -167
3 -2 -5 -9 -14 -21 -18 -21 -24 -27 -30 -27 -33 -35 -34 -38 -36 -39 -37 -38 -37 -32 -33 -32 -33 -32 -34 -37 -40 -41 -42 -45 -47 -50 -53 -41 -43 -47 -42 -47 -49 -53 -61 -74 -85 -81 -74 -98 -116 -84 -83 -89 -94 -97 -93 -89 -91 -96 -103 -108 -111 -107 -104 -104 -102 -100 -93 -84 -75 -76 -74 -76 -77 -83 -95 -110 -118 -122 -130 -135 -136 -137 -137 -132 -128 -129 -133 -136 -137 -138 -138 -141 -142 -144 -147 -148 -153 -157 -160 -163 -159 -158 -159 -158 -160 -161 -159 -159 -159 -159 -157 -157 -158 -157 -158 -162 -166 -168 -168 -170 -170 -169 -171 -172 -173 -177 -179 -174 -167 -165 -163 -162 -164 -166 -167 -165 -162 -160 -160 -153 -145 -145 -145 -146 -146 -149 -149 -150 -151 -151 -152 -151 -152 -151 -151 -152 -154 -157 -158 -157 -154 -154 -154 -149 -154 -156 -151 -151 -153 -155 -152 -151 -159 -156 -151 -149 -147 -148 -151 -151 -154 -151 -150 -150 -150 -146 -146 -167 -172 -174 -170 -167 -160 -164 -171 -175 -176 -174 -174 -173 -172 -168 -171 -174 -164 -163 -165 -168 -169 -172 -173 -173 -168 -168 -175 -174 -168 -166 -172
2 2 2 -8 -15 -20 -23 -22 -27 -32 -32 -38 -39 -42 -42 -43 -45 -39 -43 -41 -38 -38 -37 -31 -30 -31 -38 -40 -40 -43 -41 -38 -37 -41 -40 -54 -48 -44 -43 -47 -53 -54 -55 -62 -55 -69 -78 -80 -88 -93 -97 -99 -99 -99 -96 -90 -90 -96 -104 -109 -109 -106 -106 -107 -106 -107 -103 -97 -94 -84 -83 -75 -77 -82 -92 -107 -117 -122 -130 -137 -139 -140 -139 -138 -135 -136 -138 -139 -139 -138 -140 -144 -145 -148 -151 -151 -152 -162 -173 -170 -163 -162 -162 -162 -163 -162 -160 -159 -159 -159 -159 -159 -158 -159 -161 -166 -172 -173 -172 -171 -169 -168 -169 -170 -172 -175 -176 -169 -165 -165 -163 -160 -161 -163 -165 -164 -162 -159 -153 -146 -147 -149 -151 -152 -151 -152 -153 -153 -153 -152 -152 -154 -153 -153 -154 -156 -160 -161 -160 -158 -160 -158 -157 -154 -162 -158 -158 -160 -159 -155 -158 -160 -163 -156 -151 -149 -145 -149 -151 -149 -151 -152 -149 -151 -150 -161 -163 -170 -190 -172 -172 -169 -166 -169 -175 -179 -177 -174 -172 -169 -167 -170 -170 -167 -169 -170 -164 -163 -163 -167 -166 -169 -165 -168 -171 -171 -166 -154 -146
2 0 1 -7 -16 -22 -23 -22 -26 -31 -37 -38 -40 -43 -44 -45 -43 -43 -43 -44 -41 -44 -41 -36 -33 -34 -39 -42 -43 -42 -39 -37 -45 -38 -43 -52 -53 -49 -52 -53 -57 -58 -60 -56 -62 -65 -76 -83 -86 -92 -94 -97 -99 -98 -98 -95 -95 -96 -102 -106 -105 -103 -106 -108 -107 -108 -107 -101 -91 -88 -83 -78 -77 -77 -84 -95 -111 -124 -131 -138 -142 -142 -145 -145 -141 -141 -142 -143 -142 -142 -145 -147 -149 -151 -153 -154 -153 -172 -182 -174 -167 -167 -167 -166 -165 -165 -163 -161 -160 -161 -162 -164 -162 -162 -165 -169 -175 -176 -171 -169 -169 -168 -166 -167 -170 -174 -176 -169 -162 -162 -159 -155 -154 -155 -157 -157 -158 -156 -151 -147 -150 -154 -156 -156 -155 -155 -155 -154 -154 -154 -154 -155 -156 -155 -156 -158 -161 -166 -160 -159 -160 -158 -157 -155 -159 -159 -159 -162 -159 -157 -160 -163 -162 -158 -154 -152 -152 -154 -153 -152 -154 -152 -152 -155 -164 -168 -168 -170 -179 -176 -178 -175 -170 -172 -175 -177 -174 -169 -167 -166 -169 -172 -169 -166 -167 -165 -165 -171 -166 -162 -165 -168 -167 -175 -169 -168 -167 -164 -159
2 8 1 -12 -21 -24 -26 -30 -33 -37 -39 -41 -41 -44 -46 -47 -46 -44 -47 -44 -44 -43 -38 -36 -37 -35 -44 -42 -42 -44 -41 -38 -39 -39 -47 -49 -51 -53 -52 -52 -57 -62 -62 -62 -68 -66 -65 -67 -67 -89 -93 -95 -97 -97 -95 -98 -96 -98 -102 -104 -101 -98 -100 -104 -105 -105 -104 -99 -93 -92 -87 -82 -79 -74 -77 -83 -105 -127 -131 -136 -140 -142 -145 -147 -146 -146 -146 -146 -145 -145 -146 -147 -149 -151 -153 -155 -156 -158 -171 -169 -168 -172 -171 -167 -166 -165 -164 -162 -161 -162 -166 -167 -167 -167 -165 -167 -171 -170 -166 -164 -166 -165 -163 -164 -166 -168 -170 -167 -159 -157 -156 -155 -151 -148 -149 -151 -154 -155 -155 -154 -156 -159 -161 -160 -158 -151 -147 -152 -154 -156 -156 -158 -158 -160 -162 -161 -160 -163 -160 -161 -158 -157 -158 -157 -156 -158 -164 -162 -161 -159 -156 -161 -162 -171 -159 -159 -161 -164 -159 -155 -164 -166 -168 -170 -174 -169 -168 -170 -174 -180 -181 -182 -181 -179 -178 -174 -170 -164 -164 -166 -167 -166 -164 -162 -163 -163 -165 -167 -165 -164 -168 -169 -165 -161 -167 -169 -170 -168 -165
1 -1 -7 -16 -30 -25 -27 -31 -37 -40 -42 -43 -40 -43 -47 -47 -46 -45 -49 -46 -46 -45 -43 -41 -39 -36 -39 -41 -41 -41 -41 -41 -41 -39 -40 -46 -57 -56 -57 -59 -54 -61 -59 -71 -70 -67 -66 -67 -67 -74 -83 -88 -90 -94 -94 -90 -93 -97 -101 -102 -99 -95 -94 -99 -104 -103 -101 -97 -93 -91 -86 -82 -78 -72 -76 -82 -104 -126 -129 -134 -138 -140 -144 -149 -150 -150 -150 -151 -151 -149 -145 -145 -147 -149 -154 -156 -156 -159 -166 -167 -168 -172 -172 -169 -166 -164 -164 -165 -167 -166 -166 -166 -165 -165 -163 -163 -163 -161 -161 -161 -162 -162 -161 -161 -162 -161 -160 -157 -154 -155 -156 -158 -154 -150 -150 -154 -158 -160 -162 -163 -163 -163 -165 -164 -159 -152 -150 -154 -157 -162 -161 -159 -159 -163 -165 -164 -163 -162 -163 -162 -159 -159 -159 -158 -157 -160 -166 -162 -161 -162 -162 -169 -167 -173 -163 -163 -162 -163 -161 -160 -167 -167 -170 -174 -176 -168 -169 -173 -176 -180 -182 -186 -183 -179 -176 -174 -170 -163 -169 -168 -167 -164 -165 -162 -165 -164 -165 -163 -164 -165 -165 -164 -162 -161 -159 -164 -166 -169 -167
0 -2 -10 -16 -45 -30 -33 -33 -37 -42 -44 -45 -46 -45 -48 -48 -50 -46 -48 -46 -47 -46 -44 -42 -39 -38 -41 -42 -42 -40 -40 -42 -42 -43 -44 -46 -54 -59 -58 -62 -56 -57 -65 -72 -70 -65 -67 -71 -70 -71 -75 -77 -78 -86 -83 -81 -86 -95 -103 -104 -100 -96 -95 -99 -103 -104 -101 -99 -95 -91 -88 -86 -81 -75 -79 -85 -105 -126 -128 -134 -138 -139 -145 -151 -153 -151 -149 -150 -150 -149 -144 -144 -146 -146 -153 -161 -161 -161 -164 -168 -168 -169 -169 -167 -164 -163 -164 -170 -172 -169 -165 -164 -164 -165 -163 -161 -159 -158 -158 -158 -159 -159 -159 -159 -160 -159 -156 -154 -154 -155 -157 -160 -160 -161 -161 -162 -165 -167 -167 -167 -167 -167 -168 -167 -163 -157 -157 -155 -157 -163 -162 -161 -161 -163 -162 -164 -164 -163 -163 -161 -161 -161 -159 -159 -159 -158 -160 -158 -156 -157 -163 -173 -169 -164 -160 -159 -159 -164 -165 -165 -164 -165 -167 -167 -165 -169 -176 -179 -180 -182 -183 -184 -179 -175 -175 -171 -166 -161 -168 -166 -166 -163 -165 -157 -166 -163 -162 -161 -164 -165 -163 -161 -159 -160 -158 -162 -165 -162 -153
-8 -12 -20 -25 -34 -34 -38 -39 -41 -40 -44 -44 -47 -48 -50 -51 -51 -48 -52 -51 -49 -48 -45 -43 -43 -45 -43 -41 -40 -41 -41 -43 -43 -44 -47 -49 -54 -56 -59 -61 -57 -61 -68 -70 -72 -70 -69 -71 -72 -69 -72 -72 -74 -77 -77 -76 -83 -96 -103 -105 -101 -98 -99 -100 -102 -104 -105 -105 -102 -96 -94 -92 -90 -90 -95 -102 -113 -124 -127 -133 -136 -134 -142 -151 -153 -150 -147 -148 -148 -151 -150 -148 -148 -149 -152 -162 -163 -163 -164 -176 -174 -170 -169 -168 -169 -171 -174 -178 -168 -166 -163 -162 -162 -162 -162 -159 -157 -155 -155 -156 -156 -155 -153 -152 -155 -156 -154 -153 -154 -155 -157 -164 -169 -171 -171 -168 -169 -171 -170 -170 -170 -170 -169 -167 -165 -159 -159 -153 -155 -160 -161 -161 -163 -165 -165 -164 -164 -165 -166 -165 -167 -167 -166 -164 -162 -164 -163 -161 -159 -162 -166 -168 -173 -166 -159 -161 -160 -163 -165 -164 -162 -162 -163 -166 -167 -175 -186 -187 -185 -180 -178 -172 -164 -171 -173 -168 -165 -164 -167 -167 -165 -164 -163 -160 -161 -162 -159 -161 -163 -161 -162 -161 -160 -157 -156 -167 -168 -155 -144
-18 -18 -20 -21 -26 -34 -38 -40 -43 -41 -40 -40 -40 -45 -52 -53 -48 -50 -49 -50 -49 -50 -46 -48 -47 -48 -45 -43 -44 -44 -42 -43 -45 -47 -47 -51 -58 -61 -62 -62 -66 -65 -68 -74 -75 -72 -69 -69 -71 -75 -81 -81 -77 -76 -75 -82 -89 -96 -99 -100 -101 -102 -103 -104 -106 -108 -109 -109 -108 -106 -102 -96 -100 -104 -109 -115 -118 -126 -130 -134 -135 -133 -138 -145 -149 -151 -150 -151 -151 -156 -157 -155 -155 -157 -159 -161 -166 -169 -173 -180 -182 -175 -171 -171 -174 -176 -175 -168 -163 -162 -161 -160 -158 -157 -157 -156 -154 -154 -152 -151 -151 -151 -147 -144 -145 -148 -149 -149 -151 -153 -157 -166 -173 -176 -176 -173 -170 -171 -172 -174 -174 -171 -168 -166 -165 -162 -161 -158 -160 -163 -163 -164 -164 -165 -166 -166 -166 -166 -169 -168 -168 -166 -158 -164 -166 -165 -173 -166 -161 -157 -160 -160 -176 -166 -160 -162 -160 -166 -167 -166 -165 -164 -160 -181 -183 -185 -189 -183 -180 -177 -172 -166 -166 -170 -166 -165 -163 -167 -170 -168 -165 -168 -166 -159 -153 -152 -155 -164 -163 -164 -166 -165 -164 -162 -165 -168 -168 -169 -165
-19 -19 -18 -25 -30 -38 -41 -42 -45 -42 -43 -34 -42 -47 -50 -54 -56 -43 -44 -48 -52 -54 -52 -51 -49 -52 -46 -42 -45 -47 -47 -46 -46 -46 -46 -51 -58 -64 -68 -68 -66 -66 -65 -74 -72 -69 -69 -75 -80 -84 -84 -79 -79 -79 -78 -81 -93 -94 -97 -99 -100 -102 -106 -106 -108 -111 -112 -112 -112 -110 -106 -99 -100 -108 -110 -115 -117 -121 -131 -136 -137 -135 -137 -142 -149 -152 -152 -151 -151 -158 -163 -163 -166 -168 -171 -177 -183 -177 -173 -172 -178 -175 -171 -170 -168 -170 -168 -165 -163 -162 -160 -159 -156 -155 -154 -152 -151 -151 -149 -147 -148 -149 -145 -139 -138 -140 -144 -145 -149 -153 -159 -169 -175 -178 -179 -179 -180 -172 -174 -177 -176 -172 -169 -168 -166 -163 -165 -169 -167 -166 -165 -169 -175 -168 -169 -166 -166 -167 -168 -171 -172 -162 -164 -169 -169 -172 -173 -169 -161 -160 -165 -168 -168 -166 -162 -160 -159 -167 -164 -164 -167 -170 -180 -193 -194 -195 -183 -174 -170 -167 -166 -165 -163 -168 -168 -168 -161 -172 -172 -167 -161 -162 -165 -154 -152 -162 -163 -164 -160 -162 -165 -164 -166 -169 -169 -168 -167 -170 -169
-19 -20 -19 -22 -30 -40 -45 -45 -48 -46 -42 -40 -41 -44 -50 -53 -57 -49 -55 -47 -50 -50 -48 -46 -45 -48 -48 -47 -50 -53 -54 -50 -47 -48 -48 -57 -58 -58 -62 -69 -67 -63 -66 -73 -75 -74 -75 -76 -83 -85 -79 -79 -79 -82 -84 -87 -93 -94 -97 -101 -103 -105 -107 -107 -109 -111 -113 -115 -114 -111 -108 -105 -105 -108 -111 -117 -120 -123 -129 -136 -138 -137 -140 -145 -150 -153 -152 -152 -151 -158 -169 -170 -173 -173 -175 -179 -179 -175 -170 -167 -167 -169 -168 -167 -166 -167 -165 -164 -165 -164 -161 -158 -155 -154 -153 -150 -148 -148 -147 -146 -144 -143 -141 -136 -136 -137 -141 -146 -152 -156 -163 -172 -175 -177 -179 -181 -180 -176 -176 -178 -176 -172 -170 -169 -168 -164 -164 -169 -171 -169 -168 -168 -168 -169 -166 -167 -168 -169 -169 -178 -170 -174 -182 -183 -176 -170 -169 -175 -178 -178 -176 -174 -170 -170 -169 -164 -166 -171 -171 -179 -183 -184 -189 -194 -187 -178 -178 -176 -170 -171 -170 -168 -168 -171 -174 -173 -177 -174 -166 -158 -162 -160 -159 -158 -169 -166 -165 -167 -166 -167 -167 -167 -167 -167 -165 -164 -164 -165 -166
-19 -20 -21 -26 -34 -43 -44 -45 -48 -42 -43 -40 -43 -48 -51 -53 -54 -53 -55 -53 -52 -49 -50 -49 -48 -49 -46 -50 -51 -52 -55 -53 -53 -54 -50 -51 -55 -60 -66 -69 -63 -71 -71 -68 -75 -78 -73 -76 -79 -83 -82 -84 -86 -87 -88 -90 -97 -97 -99 -102 -104 -106 -107 -108 -109 -110 -113 -115 -115 -114 -114 -113 -111 -110 -112 -116 -119 -122 -130 -137 -141 -141 -142 -144 -147 -151 -153 -154 -154 -158 -168 -176 -184 -180 -175 -175 -177 -170 -166 -166 -167 -168 -164 -163 -163 -165 -165 -166 -168 -167 -164 -158 -153 -150 -148 -144 -143 -143 -142 -143 -141 -141 -138 -137 -137 -140 -145 -151 -156 -159 -166 -173 -174 -177 -180 -182 -181 -178 -177 -179 -176 -173 -172 -170 -171 -170 -171 -170 -169 -168 -168 -165 -165 -168 -166 -168 -170 -171 -174 -175 -176 -177 -170 -170 -172 -166 -163 -165 -167 -168 -174 -175 -168 -177 -174 -171 -170 -182 -191 -195 -197 -199 -193 -188 -179 -176 -175 -173 -172 -175 -172 -173 -178 -176 -173 -174 -176 -170 -164 -165 -163 -161 -158 -163 -166 -163 -163 -159 -154 -156 -158 -169 -171 -170 -168 -167 -165 -164 -164
-21 -27 -29 -30 -35 -43 -47 -48 -44 -42 -46 -51 -49 -46 -49 -55 -53 -56 -58 -57 -55 -53 -53 -55 -51 -52 -49 -49 -52 -54 -59 -58 -50 -51 -41 -48 -55 -60 -61 -63 -65 -68 -68 -61 -61 -66 -70 -75 -77 -82 -87 -92 -95 -94 -91 -90 -100 -100 -101 -103 -105 -106 -107 -108 -109 -110 -113 -115 -116 -116 -117 -117 -115 -114 -114 -117 -119 -122 -130 -135 -140 -143 -139 -138 -142 -148 -157 -159 -159 -158 -174 -190 -195 -188 -176 -171 -168 -160 -164 -166 -167 -167 -163 -161 -160 -162 -166 -168 -169 -168 -166 -161 -156 -147 -138 -136 -135 -135 -133 -133 -137 -138 -138 -140 -140 -145 -152 -157 -160 -161 -166 -171 -174 -178 -181 -182 -182 -179 -180 -182 -178 -173 -173 -172 -172 -173 -172 -172 -171 -171 -167 -167 -167 -169 -171 -172 -175 -178 -179 -173 -171 -169 -164 -159 -163 -162 -162 -157 -163 -165 -175 -181 -172 -176 -177 -176 -187 -195 -203 -212 -206 -201 -184 -177 -178 -177 -175 -174 -174 -176 -174 -176 -175 -172 -170 -170 -169 -165 -163 -160 -167 -163 -162 -163 -161 -163 -168 -171 -174 -174 -169 -171 -174 -172 -167 -166 -166 -166 -166
-25 -28 -32 -36 -34 -36 -41 -47 -48 -42 -38 -44 -49 -49 -50 -53 -56 -58 -58 -58 -60 -58 -58 -58 -55 -57 -49 -50 -52 -60 -64 -56 -47 -48 -47 -46 -52 -56 -56 -60 -60 -66 -74 -66 -53 -50 -57 -65 -80 -89 -95 -98 -101 -99 -97 -97 -100 -100 -100 -102 -104 -106 -108 -108 -109 -111 -113 -115 -118 -119 -119 -119 -118 -118 -118 -119 -122 -124 -131 -135 -140 -144 -140 -136 -136 -136 -153 -159 -159 -165 -180 -200 -199 -187 -171 -166 -163 -160 -161 -164 -166 -167 -164 -161 -161 -161 -164 -166 -165 -166 -167 -166 -163 -139 -129 -129 -129 -131 -131 -132 -135 -137 -139 -143 -145 -149 -156 -161 -164 -165 -167 -170 -175 -180 -183 -183 -182 -181 -183 -183 -179 -174 -173 -171 -171 -171 -173 -172 -170 -168 -168 -170 -175 -175 -174 -176 -179 -182 -176 -170 -168 -163 -158 -155 -159 -160 -162 -155 -160 -168 -181 -182 -178 -178 -179 -187 -198 -199 -210 -200 -185 -181 -172 -173 -176 -176 -177 -174 -171 -172 -173 -171 -171 -171 -169 -169 -165 -162 -160 -164 -165 -162 -163 -161 -162 -161 -174 -177 -177 -176 -176 -174 -173 -170 -168 -168 -167 -166 -166
-28 -35 -38 -40 -40 -42 -40 -45 -47 -49 -45 -43 -45 -50 -48 -52 -56 -62 -62 -58 -59 -59 -63 -64 -63 -58 -54 -59 -61 -61 -62 -58 -48 -46 -46 -48 -54 -54 -55 -59 -58 -74 -91 -90 -80 -72 -72 -54 -91 -99 -103 -103 -105 -102 -101 -101 -101 -99 -101 -103 -105 -106 -108 -109 -110 -112 -114 -116 -120 -124 -124 -124 -123 -123 -122 -124 -125 -128 -134 -138 -140 -141 -140 -138 -137 -137 -159 -159 -161 -169 -185 -194 -196 -187 -177 -170 -163 -160 -160 -161 -162 -163 -163 -163 -163 -161 -160 -161 -162 -164 -166 -166 -166 -145 -129 -130 -131 -132 -133 -134 -136 -138 -141 -145 -149 -155 -160 -163 -166 -167 -168 -172 -176 -183 -187 -185 -181 -182 -184 -183 -180 -175 -173 -172 -171 -171 -171 -171 -169 -168 -170 -172 -176 -177 -178 -181 -181 -179 -174 -171 -173 -167 -165 -166 -161 -167 -169 -165 -166 -169 -178 -184 -185 -184 -181 -178 -195 -197 -190 -176 -174 -176 -173 -175 -175 -174 -172 -171 -171 -172 -171 -170 -170 -171 -171 -168 -164 -162 -153 -162 -163 -166 -166 -166 -167 -170 -173 -172 -170 -172 -174 -170 -168 -167 -167 -167 -167 -176 -181
-34 -43 -40 -46 -47 -51 -48 -47 -47 -46 -45 -45 -46 -48 -50 -50 -57 -61 -63 -62 -63 -64 -66 -67 -65 -66 -66 -67 -62 -61 -60 -56 -57 -52 -47 -45 -52 -54 -57 -60 -69 -83 -99 -98 -98 -99 -91 -85 -90 -94 -95 -95 -95 -97 -99 -102 -103 -102 -104 -105 -106 -107 -108 -110 -112 -114 -115 -116 -120 -124 -127 -129 -129 -128 -127 -128 -128 -130 -135 -139 -139 -139 -145 -135 -135 -135 -159 -163 -167 -172 -179 -184 -189 -190 -188 -178 -169 -164 -161 -159 -158 -159 -161 -162 -161 -159 -157 -157 -158 -160 -162 -162 -162 -149 -135 -138 -139 -140 -141 -141 -142 -143 -147 -150 -155 -160 -163 -164 -167 -170 -171 -173 -176 -181 -185 -184 -181 -183 -184 -183 -181 -177 -173 -171 -170 -170 -170 -171 -171 -171 -171 -173 -176 -178 -176 -174 -174 -170 -168 -170 -171 -169 -166 -166 -164 -164 -168 -169 -168 -167 -176 -185 -185 -183 -179 -176 -176 -176 -173 -170 -172 -173 -174 -173 -169 -168 -169 -169 -169 -169 -167 -166 -166 -165 -165 -165 -161 -159 -157 -159 -166 -171 -173 -172 -172 -174 -174 -170 -168 -168 -163 -168 -170 -168 -175 -179 -183 -191 -192
-39 -44 -47 -46 -46 -51 -51 -50 -50 -47 -44 -46 -44 -46 -52 -50 -52 -58 -64 -65 -63 -65 -61 -61 -65 -71 -71 -62 -62 -64 -63 -59 -59 -50 -51 -48 -52 -56 -59 -66 -91 -99 -98 -90 -88 -85 -86 -86 -87 -90 -91 -92 -92 -93 -94 -97 -102 -102 -105 -106 -107 -108 -109 -111 -114 -115 -115 -116 -119 -123 -126 -128 -130 -131 -131 -131 -132 -132 -133 -137 -138 -139 -140 -134 -134 -148 -176 -164 -168 -175 -182 -185 -188 -189 -187 -180 -174 -169 -163 -158 -157 -157 -157 -156 -155 -153 -151 -150 -150 -151 -154 -156 -154 -152 -148 -145 -145 -147 -148 -148 -149 -150 -152 -155 -158 -159 -161 -163 -167 -170 -171 -172 -175 -179 -182 -183 -182 -183 -184 -184 -182 -178 -175 -173 -171 -170 -171 -172 -173 -173 -173 -173 -173 -174 -172 -171 -170 -166 -160 -155 -153 -153 -151 -154 -156 -162 -166 -167 -167 -168 -174 -179 -179 -178 -174 -172 -171 -171 -169 -168 -169 -170 -172 -171 -169 -168 -167 -166 -166 -165 -165 -163 -162 -161 -161 -162 -160 -159 -157 -160 -170 -173 -176 -174 -173 -168 -168 -168 -171 -173 -176 -181 -185 -193 -193 -192 -192 -194 -193
-36 -46 -38 -36 -43 -44 -49 -54 -54 -47 -50 -49 -47 -47 -49 -54 -53 -61 -65 -63 -59 -63 -61 -66 -69 -63 -71 -65 -60 -72 -70 -70 -65 -54 -46 -49 -54 -62 -76 -92 -97 -92 -90 -91 -85 -84 -84 -84 -84 -87 -89 -90 -90 -91 -89 -91 -99 -103 -105 -108 -109 -110 -112 -114 -116 -118 -118 -119 -121 -123 -126 -127 -129 -132 -134 -133 -133 -133 -137 -139 -139 -140 -142 -142 -146 -163 -174 -168 -167 -176 -184 -187 -188 -181 -178 -175 -170 -167 -163 -158 -155 -151 -147 -146 -146 -146 -146 -145 -144 -145 -148 -151 -151 -150 -149 -149 -149 -150 -151 -151 -152 -153 -153 -155 -158 -158 -159 -163 -167 -168 -170 -171 -175 -180 -183 -183 -182 -183 -184 -183 -182 -179 -178 -175 -172 -171 -170 -170 -171 -172 -172 -171 -168 -166 -164 -164 -160 -155 -149 -141 -137 -137 -135 -142 -147 -161 -169 -169 -168 -167 -167 -168 -168 -167 -165 -162 -162 -164 -165 -164 -165 -167 -169 -169 -167 -166 -164 -163 -163 -161 -161 -161 -162 -162 -161 -159 -158 -158 -158 -157 -165 -168 -169 -168 -165 -160 -159 -166 -176 -181 -188 -192 -192 -193 -192 -192 -192 -192 -191
-41 -41 -43 -42 -48 -46 -44 -50 -51 -48 -55 -55 -52 -49 -50 -55 -61 -61 -61 -64 -64 -61 -66 -69 -70 -66 -66 -61 -64 -62 -60 -68 -69 -56 -48 -59 -71 -87 -94 -95 -91 -89 -88 -87 -85 -84 -85 -86 -87 -88 -88 -92 -94 -94 -85 -90 -95 -102 -105 -108 -110 -112 -113 -115 -118 -122 -123 -123 -124 -126 -128 -129 -130 -132 -134 -134 -136 -139 -143 -143 -144 -144 -146 -152 -157 -166 -171 -170 -168 -174 -179 -179 -179 -173 -170 -169 -165 -162 -161 -157 -151 -143 -139 -139 -141 -142 -143 -144 -144 -144 -146 -149 -151 -150 -151 -151 -151 -151 -150 -150 -152 -154 -154 -156 -157 -158 -160 -164 -167 -168 -170 -171 -175 -180 -182 -182 -184 -184 -184 -183 -182 -181 -179 -176 -173 -171 -169 -168 -167 -168 -169 -168 -162 -156 -154 -152 -147 -144 -142 -139 -137 -135 -134 -135 -137 -164 -173 -173 -172 -170 -166 -164 -162 -160 -158 -157 -157 -160 -164 -165 -168 -171 -171 -167 -164 -162 -160 -159 -159 -158 -155 -155 -159 -161 -161 -161 -162 -162 -163 -159 -161 -161 -162 -161 -160 -158 -148 -162 -187 -187 -198 -193 -193 -193 -192 -191 -187 -184 -180
-39 -37 -49 -47 -49 -52 -52 -54 -53 -54 -59 -56 -56 -50 -48 -54 -58 -63 -64 -64 -68 -69 -69 -65 -70 -69 -62 -62 -64 -62 -63 -63 -64 -62 -55 -69 -83 -88 -92 -86 -86 -87 -84 -85 -84 -84 -85 -87 -90 -91 -94 -98 -97 -94 -94 -96 -99 -103 -107 -110 -111 -113 -114 -116 -119 -122 -124 -125 -126 -128 -129 -128 -129 -133 -135 -137 -139 -139 -142 -146 -146 -148 -153 -156 -159 -159 -159 -163 -169 -173 -175 -175 -177 -170 -167 -166 -162 -161 -160 -155 -146 -139 -137 -137 -138 -139 -140 -142 -142 -142 -144 -147 -149 -150 -150 -151 -151 -150 -149 -148 -149 -152 -155 -157 -158 -159 -161 -164 -168 -170 -171 -173 -176 -180 -182 -184 -187 -188 -186 -184 -182 -181 -179 -175 -172 -169 -168 -165 -164 -164 -165 -162 -153 -144 -141 -142 -139 -136 -135 -133 -132 -133 -135 -137 -149 -163 -168 -169 -167 -164 -162 -161 -160 -158 -157 -161 -163 -164 -166 -168 -169 -170 -167 -164 -161 -160 -159 -159 -158 -157 -155 -156 -159 -160 -161 -163 -164 -163 -161 -154 -152 -150 -151 -152 -154 -153 -149 -161 -187 -192 -194 -192 -192 -192 -189 -185 -178 -170 -165
